ply
format ascii 1.0
comment Created by CloudCompare v2.12.4 (Kyiv)
comment Created 2023-06-03T13:57:42
obj_info Generated by CloudCompare!
element vertex 1208
property float x
property float y
property float z
property uchar red
property uchar green
property uchar blue
end_header
0.076649 -0.250681 0.909496 140 30 55 
0.077979 -0.251980 0.909956 145 40 57 
0.077353 -0.251594 0.909711 143 36 57 
0.077024 -0.251650 0.909547 143 35 57 
0.078490 -0.251070 0.910327 143 36 57 
0.078417 -0.250982 0.910305 143 36 56 
0.078504 -0.252191 0.910178 146 42 57 
0.079387 -0.252212 0.910740 146 45 58 
0.079516 -0.252066 0.910844 146 44 58 
0.079341 -0.251828 0.910763 145 43 58 
0.079994 -0.251262 0.911217 144 41 58 
0.080099 -0.252577 0.911152 147 49 59 
0.079645 -0.251291 0.911002 144 40 57 
0.081332 -0.252527 0.912044 148 49 63 
0.080788 -0.252586 0.911642 148 49 61 
0.080612 -0.251770 0.911593 145 44 60 
0.081145 -0.251876 0.911972 146 45 61 
0.081241 -0.252058 0.912024 147 46 62 
0.080659 -0.251546 0.911650 145 43 59 
0.082574 -0.252915 0.913156 150 50 66 
0.082104 -0.251919 0.912756 147 44 63 
0.083195 -0.253370 0.913768 152 51 69 
0.083221 -0.253237 0.913809 152 50 68 
0.082765 -0.252107 0.913424 148 44 64 
0.082175 -0.251707 0.912847 146 43 62 
0.082064 -0.251672 0.912736 146 43 62 
0.083241 -0.253103 0.913841 151 49 68 
0.084370 -0.253198 0.914947 151 47 68 
0.084382 -0.253401 0.914943 152 48 69 
0.083814 -0.253035 0.914419 151 48 68 
0.084347 -0.253313 0.914915 152 48 68 
0.084993 -0.252873 0.915547 150 45 66 
0.084689 -0.252319 0.915286 148 43 64 
0.084326 -0.252565 0.914939 149 44 66 
0.084224 -0.252544 0.914845 149 44 65 
0.085993 -0.253519 0.916424 152 47 68 
0.085545 -0.252957 0.916045 150 45 66 
0.086604 -0.254018 0.916949 153 48 70 
0.086567 -0.253802 0.916915 152 47 69 
0.086192 -0.253229 0.916594 150 45 67 
0.086627 -0.253413 0.916954 151 46 67 
0.087166 -0.253413 0.917386 150 44 65 
0.087649 -0.254251 0.917790 151 46 66 
0.086922 -0.253138 0.917187 150 44 66 
0.087420 -0.254322 0.917611 152 47 68 
0.088192 -0.254115 0.918222 150 44 63 
0.088413 -0.254139 0.918410 150 44 63 
0.088224 -0.254045 0.918251 150 44 63 
0.088718 -0.253314 0.918667 151 45 62 
0.089152 -0.253934 0.918924 151 45 60 
0.089054 -0.254243 0.918853 151 45 61 
0.088665 -0.253195 0.918638 151 45 62 
0.089289 -0.253516 0.919031 151 45 60 
0.089031 -0.253626 0.918857 151 45 61 
0.090428 -0.254593 0.919645 151 44 55 
0.090891 -0.254752 0.919733 151 44 52 
0.091715 -0.254576 0.919939 151 44 47 
0.091333 -0.254518 0.919840 150 44 50 
0.092756 -0.254601 0.920034 151 43 38 
0.091868 -0.253732 0.920076 151 43 46 
0.092841 -0.254909 0.920003 151 43 38 
0.093322 -0.254901 0.920047 151 43 33 
0.093268 -0.254566 0.920102 151 43 34 
0.092896 -0.254536 0.920057 151 43 37 
-0.003778 -0.255241 0.926665 112 18 21 
-0.004509 -0.255445 0.927166 112 18 20 
-0.004465 -0.255381 0.927153 112 18 20 
-0.003126 -0.254298 0.926479 111 18 20 
-0.003128 -0.254712 0.926339 111 18 21 
-0.003918 -0.254496 0.927026 111 18 20 
-0.002016 -0.254578 0.925622 111 19 21 
-0.003047 -0.254072 0.926496 110 18 20 
-0.002521 -0.254547 0.925976 111 18 21 
-0.001565 -0.254547 0.925321 112 19 22 
-0.001761 -0.254756 0.925387 112 19 22 
-0.001766 -0.254225 0.925567 111 19 22 
-0.001088 -0.254089 0.924944 111 19 23 
-0.001149 -0.254194 0.924981 111 19 23 
-0.001188 -0.253927 0.925117 110 19 22 
-0.001023 -0.254113 0.924858 111 19 23 
0.000065 -0.254031 0.923581 111 19 25 
-0.000208 -0.253584 0.924054 110 18 24 
-0.000133 -0.253987 0.923832 111 19 25 
-0.000265 -0.254119 0.923948 111 19 25 
0.001173 -0.254236 0.922574 111 18 22 
0.000343 -0.254222 0.923278 111 19 25 
0.000566 -0.253515 0.923321 110 17 23 
0.000857 -0.253521 0.923068 110 17 22 
0.001368 -0.253528 0.922608 110 16 21 
0.000410 -0.253013 0.923597 109 16 23 
0.002431 -0.253722 0.921899 111 17 20 
0.001686 -0.253283 0.922404 110 16 19 
0.002548 -0.253767 0.921825 111 17 20 
0.003050 -0.252636 0.921842 109 15 19 
0.003187 -0.253281 0.921608 110 16 20 
0.004636 -0.253740 0.920959 111 17 16 
0.003518 -0.252870 0.921588 109 15 18 
0.004324 -0.252452 0.921336 109 14 14 
0.004645 -0.252928 0.921111 110 15 14 
0.004250 -0.252407 0.921376 109 14 14 
0.005295 -0.253189 0.920740 110 15 16 
0.005279 -0.252838 0.920815 110 14 15 
0.005236 -0.253616 0.920689 111 16 17 
0.005657 -0.252679 0.920656 110 14 18 
0.005540 -0.252352 0.920780 110 13 17 
0.006038 -0.253011 0.920399 111 14 20 
0.006467 -0.253199 0.920114 111 13 22 
0.006614 -0.252962 0.920059 110 13 23 
0.007006 -0.252834 0.919812 109 11 25 
0.007294 -0.252084 0.919679 108 10 31 
0.007384 -0.252464 0.919573 108 10 30 
0.007523 -0.252825 0.919430 108 9 29 
0.008661 -0.253009 0.918244 104 10 34 
0.009071 -0.252642 0.917817 103 10 37 
0.008189 -0.252418 0.918834 106 9 35 
0.009028 -0.251625 0.917903 105 6 31 
0.008333 -0.251839 0.918710 106 8 36 
0.009100 -0.252412 0.917791 103 9 36 
0.009209 -0.252478 0.917661 103 9 36 
0.009922 -0.251774 0.916846 108 18 35 
0.009468 -0.251999 0.917374 104 9 33 
0.009462 -0.251710 0.917390 105 8 31 
0.009906 -0.252004 0.916856 108 19 37 
0.010031 -0.251725 0.916715 109 20 36 
0.010701 -0.251305 0.915830 109 25 25 
0.009670 -0.251408 0.917143 107 10 29 
0.010584 -0.251672 0.916010 111 28 34 
0.011108 -0.251879 0.915419 115 44 45 
0.011238 -0.251915 0.915294 116 50 51 
0.011440 -0.251892 0.915091 119 58 59 
0.012084 -0.250459 0.914288 109 56 61 
0.012069 -0.251530 0.914430 123 79 77 
0.011638 -0.251010 0.914806 114 52 49 
0.013661 -0.251498 0.912947 129 98 99 
0.012708 -0.251792 0.913842 130 99 99 
0.012656 -0.251613 0.913869 127 95 96 
0.013924 -0.251342 0.912692 128 96 97 
0.013612 -0.251059 0.912940 123 88 91 
0.013802 -0.251328 0.912800 127 95 96 
0.013489 -0.250484 0.912984 115 75 81 
0.014245 -0.251209 0.912454 130 105 107 
0.014094 -0.251473 0.912584 132 105 105 
0.014753 -0.250956 0.912088 135 122 124 
0.015343 -0.249956 0.911718 134 116 141 
0.014171 -0.250080 0.912375 115 77 86 
0.015779 -0.250554 0.911472 147 134 148 
0.016350 -0.250670 0.911148 156 127 138 
0.015613 -0.250775 0.911566 147 144 153 
0.016282 -0.250132 0.911220 151 122 140 
0.016493 -0.250509 0.911075 157 122 135 
0.016818 -0.250830 0.910885 164 124 131 
0.017127 -0.250345 0.910800 164 127 133 
0.017762 -0.250404 0.910458 157 106 116 
0.018083 -0.250442 0.910284 154 95 107 
0.017326 -0.249543 0.910834 160 132 143 
0.018426 -0.250521 0.910119 153 88 102 
0.018175 -0.249939 0.910379 156 109 123 
0.019287 -0.250363 0.909572 144 88 102 
0.018627 -0.250753 0.909946 151 79 93 
0.018625 -0.250490 0.910019 152 87 102 
0.019100 -0.249679 0.909910 151 111 125 
0.019901 -0.249416 0.909525 152 113 119 
0.020110 -0.250492 0.908952 133 80 93 
0.021316 -0.250119 0.908415 146 95 101 
0.021298 -0.249187 0.908891 156 116 107 
0.021190 -0.249572 0.908752 152 107 106 
0.021324 -0.249013 0.908965 158 120 107 
0.022317 -0.249575 0.908022 157 122 116 
0.021821 -0.249714 0.908310 153 109 105 
0.021835 -0.250114 0.908098 148 100 104 
0.022936 -0.249775 0.907488 158 127 127 
0.022460 -0.249561 0.907927 158 125 119 
0.023088 -0.249465 0.907573 160 129 130 
0.023142 -0.249295 0.907634 161 131 132 
0.023162 -0.249978 0.907212 158 129 131 
0.023172 -0.249988 0.907199 158 129 131 
0.024062 -0.248906 0.907234 166 144 150 
0.024232 -0.249333 0.906824 166 149 154 
0.023922 -0.248828 0.907382 165 141 147 
0.025122 -0.249501 0.906028 169 154 159 
0.024720 -0.249273 0.906520 168 153 160 
0.024991 -0.249563 0.906093 169 155 160 
0.025836 -0.248471 0.906162 172 151 153 
0.025822 -0.248427 0.906204 172 150 153 
0.025403 -0.248635 0.906402 171 149 155 
0.026144 -0.248454 0.905929 173 152 151 
0.026239 -0.248397 0.905916 173 152 151 
0.026545 -0.248679 0.905551 173 152 152 
0.026754 -0.248419 0.905595 173 152 151 
0.027055 -0.248797 0.905180 174 152 153 
0.027500 -0.248989 0.904790 174 152 154 
0.028080 -0.248500 0.904773 173 151 150 
0.027786 -0.248140 0.905145 173 151 150 
0.028120 -0.248992 0.904454 174 151 152 
0.028899 -0.248196 0.904470 175 151 145 
0.028402 -0.247964 0.904882 174 151 147 
0.028561 -0.248261 0.904633 174 151 147 
0.029868 -0.248988 0.903661 175 149 151 
0.029541 -0.249015 0.903762 175 149 150 
0.029702 -0.248154 0.904150 175 150 146 
0.029970 -0.247748 0.904219 177 151 146 
0.030564 -0.247662 0.904010 179 150 148 
0.030941 -0.248871 0.903403 174 149 154 
0.030745 -0.247735 0.903931 179 150 149 
0.031067 -0.247855 0.903824 178 151 151 
0.031968 -0.247850 0.903645 176 152 155 
0.033203 -0.248608 0.903256 171 151 156 
0.032804 -0.248447 0.903343 173 151 156 
0.033548 -0.248388 0.903310 172 151 155 
0.033525 -0.248187 0.903383 173 151 154 
0.033575 -0.247638 0.903576 175 151 153 
0.034015 -0.248688 0.903127 171 151 154 
0.033903 -0.248306 0.903286 173 151 154 
0.033963 -0.247789 0.903461 175 151 153 
0.034136 -0.247718 0.903453 175 152 152 
0.034535 -0.247757 0.903362 175 152 152 
0.035192 -0.248797 0.902864 174 152 152 
0.035571 -0.248111 0.903009 176 152 148 
0.035501 -0.247844 0.903124 176 152 148 
0.035954 -0.247773 0.903025 177 151 145 
0.035876 -0.247684 0.903078 177 151 146 
0.037041 -0.247936 0.902668 174 147 136 
0.036765 -0.248358 0.902599 177 150 138 
0.037353 -0.248262 0.902467 172 144 132 
0.037737 -0.247295 0.902693 172 138 135 
0.037666 -0.247915 0.902499 170 141 131 
0.036942 -0.247478 0.902854 175 147 139 
0.038222 -0.247798 0.902382 168 134 128 
0.038463 -0.248025 0.902219 168 135 127 
0.039410 -0.248257 0.901808 166 136 124 
0.039000 -0.247323 0.902277 170 133 131 
0.038872 -0.247328 0.902320 170 133 131 
0.040262 -0.248245 0.901554 163 112 113 
0.040587 -0.248036 0.901536 161 98 109 
0.040782 -0.247375 0.901720 165 103 119 
0.041009 -0.247414 0.901646 164 97 116 
0.040746 -0.247213 0.901789 166 107 122 
0.041748 -0.247670 0.901421 162 74 102 
0.041397 -0.247474 0.901541 163 87 111 
0.041953 -0.247458 0.901470 164 80 105 
0.042722 -0.247832 0.901230 162 64 89 
0.041665 -0.247355 0.901546 165 83 110 
0.042872 -0.247372 0.901388 165 95 107 
0.042902 -0.248262 0.901058 160 49 80 
0.042868 -0.248054 0.901137 162 58 86 
0.043476 -0.247549 0.901283 166 113 116 
0.043308 -0.247085 0.901466 167 123 120 
0.044048 -0.247002 0.901448 167 144 128 
0.045130 -0.247845 0.900901 170 147 136 
0.044501 -0.247631 0.901140 167 137 126 
0.044376 -0.246927 0.901435 167 152 131 
0.045175 -0.247449 0.901037 169 151 138 
0.045134 -0.247148 0.901160 167 149 136 
0.046637 -0.247984 0.900669 173 148 139 
0.045926 -0.247071 0.901022 166 144 138 
0.046071 -0.248187 0.900608 173 151 143 
0.047179 -0.247316 0.900901 165 129 122 
0.046775 -0.247072 0.901000 164 131 125 
0.048193 -0.247768 0.900663 155 118 118 
0.047439 -0.247274 0.900902 162 123 118 
0.047936 -0.247614 0.900739 157 120 118 
0.048344 -0.247005 0.900925 144 80 97 
0.048420 -0.247696 0.900671 150 108 113 
0.048851 -0.247236 0.900803 138 69 93 
0.048874 -0.247003 0.900886 135 57 87 
0.048958 -0.247421 0.900737 139 72 93 
0.049915 -0.247785 0.900612 130 41 64 
0.050089 -0.247177 0.900833 121 20 55 
0.049723 -0.246879 0.900937 123 24 62 
0.050605 -0.247631 0.900695 122 18 44 
0.050955 -0.248022 0.900584 124 19 36 
0.050551 -0.246880 0.900960 115 3 41 
0.051626 -0.247167 0.900945 119 4 19 
0.052788 -0.247767 0.900989 120 3 12 
0.052495 -0.247507 0.901006 120 4 13 
0.053268 -0.246917 0.901426 122 11 19 
0.053256 -0.247753 0.901119 122 5 14 
0.052924 -0.247408 0.901156 121 6 15 
0.053650 -0.247841 0.901144 121 7 15 
0.054324 -0.248080 0.901108 119 9 19 
0.054775 -0.248204 0.901097 118 11 21 
0.054829 -0.247234 0.901465 121 11 20 
0.054691 -0.247105 0.901502 122 11 20 
0.055086 -0.248253 0.901155 118 11 22 
0.056014 -0.248055 0.901586 122 14 27 
0.055619 -0.248042 0.901438 121 13 25 
0.056307 -0.247419 0.901983 123 14 24 
0.055454 -0.247332 0.901643 123 13 22 
0.056531 -0.247160 0.902191 124 14 23 
0.056782 -0.248192 0.901859 124 15 28 
0.057538 -0.247505 0.902462 125 15 25 
0.057143 -0.247683 0.902225 125 15 25 
0.057168 -0.247353 0.902372 124 14 24 
0.058575 -0.248093 0.902626 126 16 27 
0.058441 -0.247683 0.902746 126 16 26 
0.058697 -0.248663 0.902434 127 16 29 
0.059262 -0.248106 0.902901 127 15 28 
0.058553 -0.247659 0.902804 126 15 26 
0.059332 -0.248185 0.902893 127 15 28 
0.059688 -0.248281 0.903002 127 15 28 
0.060724 -0.248859 0.903159 129 16 31 
0.060406 -0.248499 0.903199 128 15 30 
0.060451 -0.248018 0.903464 128 15 29 
0.061113 -0.248761 0.903379 129 16 31 
0.061983 -0.249001 0.903542 129 16 33 
0.061454 -0.248366 0.903718 129 16 32 
0.062562 -0.248283 0.904176 128 16 34 
0.062677 -0.248330 0.904193 128 16 34 
0.061846 -0.247936 0.904107 128 16 33 
0.063867 -0.248961 0.904036 130 16 36 
0.063411 -0.248961 0.903949 130 16 35 
0.063251 -0.248788 0.904028 129 16 35 
0.064082 -0.248039 0.904605 128 16 36 
0.063598 -0.248355 0.904358 128 16 36 
0.064107 -0.248297 0.904460 128 16 36 
0.065310 -0.248861 0.904369 131 16 39 
0.064778 -0.248390 0.904530 129 16 37 
0.065183 -0.248627 0.904477 130 16 38 
0.065609 -0.248360 0.904762 130 16 39 
0.066381 -0.249055 0.904495 133 17 40 
0.066719 -0.249243 0.904448 134 18 41 
0.066725 -0.249038 0.904581 133 17 41 
0.066692 -0.248435 0.904961 132 17 40 
0.066872 -0.248507 0.904954 132 17 41 
0.067367 -0.248476 0.905082 133 17 42 
0.067812 -0.248979 0.904969 134 18 42 
0.067462 -0.248949 0.904820 134 18 42 
0.068191 -0.249053 0.905104 134 18 42 
0.068332 -0.248610 0.905412 133 17 42 
0.068841 -0.248648 0.905566 133 17 42 
0.069039 -0.248212 0.905863 132 16 42 
0.069475 -0.249078 0.905738 134 18 43 
0.069558 -0.248905 0.905875 133 17 43 
0.069712 -0.248495 0.906141 133 17 43 
0.070266 -0.248392 0.906501 132 16 42 
0.070447 -0.248725 0.906473 133 17 43 
0.070638 -0.248724 0.906587 133 17 43 
0.070732 -0.249744 0.906245 136 19 46 
0.071867 -0.249778 0.906940 136 18 46 
0.071802 -0.249593 0.906972 136 18 46 
0.071420 -0.248541 0.907130 133 16 42 
0.071138 -0.248755 0.906882 134 17 43 
0.072384 -0.249647 0.907319 136 18 46 
0.072634 -0.249401 0.907579 135 18 45 
0.072827 -0.249588 0.907642 136 19 46 
0.073468 -0.248870 0.908191 135 17 44 
0.073431 -0.249517 0.908024 136 19 46 
0.074335 -0.250095 0.908398 137 22 50 
0.074054 -0.249698 0.908327 136 21 48 
0.074065 -0.249937 0.908279 137 21 49 
0.074359 -0.249320 0.908575 136 20 47 
0.075061 -0.249835 0.908835 137 23 50 
0.074902 -0.249622 0.908787 137 22 49 
0.075669 -0.250476 0.909046 139 26 54 
0.075834 -0.250461 0.909128 139 27 54 
0.075776 -0.250194 0.909130 139 26 53 
0.075958 -0.249485 0.909296 138 23 51 
0.076728 -0.249768 0.909633 139 26 53 
0.076500 -0.249351 0.909568 138 24 52 
0.077164 -0.249833 0.909834 139 27 54 
0.078002 -0.250432 0.910169 141 32 55 
0.078104 -0.249821 0.910358 139 28 54 
0.078434 -0.249765 0.910574 139 28 54 
0.078078 -0.249440 0.910432 138 26 53 
0.079688 -0.251064 0.911054 143 39 57 
0.078867 -0.250347 0.910707 141 33 55 
0.078941 -0.250605 0.910693 142 34 56 
0.079798 -0.249726 0.911465 139 29 54 
0.079328 -0.249901 0.911111 140 30 55 
0.079586 -0.250445 0.911138 141 35 56 
0.080311 -0.250191 0.911690 140 33 56 
0.080982 -0.250616 0.912092 142 36 58 
0.080323 -0.251055 0.911476 143 40 58 
0.081650 -0.250186 0.912729 141 33 57 
0.081066 -0.250566 0.912170 142 36 58 
0.081619 -0.250208 0.912699 141 33 57 
0.082228 -0.251562 0.912920 146 42 62 
0.082516 -0.251166 0.913337 144 39 60 
0.081883 -0.250319 0.912878 141 34 57 
0.082803 -0.251134 0.913656 144 38 60 
0.083520 -0.250907 0.914482 144 35 60 
0.083461 -0.251646 0.914229 146 40 62 
0.082588 -0.250648 0.913551 143 35 59 
0.083422 -0.250838 0.914395 144 35 60 
0.084713 -0.251925 0.915398 147 40 63 
0.084795 -0.252056 0.915446 147 41 63 
0.083632 -0.251235 0.914512 145 37 61 
0.085121 -0.252309 0.915702 148 42 64 
0.083644 -0.250566 0.914696 143 33 59 
0.084774 -0.251337 0.915598 145 36 61 
0.084480 -0.250764 0.915452 143 33 60 
0.086160 -0.252486 0.916580 148 42 64 
0.085515 -0.251695 0.916202 146 38 62 
0.085500 -0.252072 0.916100 147 40 63 
0.086287 -0.252363 0.916720 148 41 64 
0.086685 -0.252425 0.917041 147 41 64 
0.086694 -0.252506 0.917039 148 41 64 
0.086240 -0.251591 0.916808 145 36 62 
0.087228 -0.252257 0.917504 147 39 63 
0.087434 -0.252830 0.917619 149 43 64 
0.088287 -0.252990 0.918344 150 43 63 
0.087756 -0.251714 0.918033 145 37 60 
0.088118 -0.251916 0.918330 146 38 61 
0.087340 -0.251408 0.917703 144 35 60 
0.089207 -0.253265 0.918989 150 44 60 
0.089120 -0.252283 0.919061 147 40 59 
0.089479 -0.253257 0.919173 150 44 59 
0.088866 -0.251875 0.918949 145 38 59 
0.090212 -0.252616 0.919799 148 41 57 
0.089944 -0.252506 0.919623 147 41 57 
0.091090 -0.253420 0.919910 150 44 51 
0.090579 -0.253388 0.919772 150 44 54 
0.091172 -0.252803 0.920074 148 41 51 
0.091152 -0.252694 0.920103 148 41 51 
0.091579 -0.252378 0.920397 146 39 50 
0.092313 -0.253117 0.920326 149 41 43 
0.092041 -0.253049 0.920312 149 41 46 
0.093235 -0.252296 0.920843 146 38 38 
0.093376 -0.253172 0.920490 149 41 34 
0.093159 -0.253296 0.920388 149 41 36 
0.094456 -0.254585 0.923727 151 42 32 
0.095076 -0.254814 0.925890 150 41 32 
0.095371 -0.255312 0.926807 151 41 31 
0.094505 -0.254144 0.924028 149 40 33 
0.095177 -0.255083 0.926177 151 41 31 
0.094408 -0.254015 0.923713 149 40 33 
0.093840 -0.253825 0.921727 150 42 33 
0.093609 -0.253476 0.920996 149 41 33 
0.094520 -0.254016 0.924117 149 40 33 
0.094289 -0.253531 0.923424 148 39 34 
0.095478 -0.255499 0.927139 151 42 31 
0.094320 -0.254229 0.923337 150 41 32 
0.093467 -0.253429 0.920498 150 42 33 
0.094561 -0.252553 0.921553 147 40 33 
0.095368 -0.254226 0.924963 149 41 31 
0.094755 -0.253590 0.923661 148 40 33 
0.094423 -0.252699 0.921847 147 39 34 
0.094423 -0.252385 0.921210 146 39 34 
0.093748 -0.252424 0.921277 146 38 36 
0.094704 -0.253538 0.923555 148 40 33 
0.095319 -0.254697 0.925919 150 41 32 
0.095139 -0.252749 0.921962 147 41 31 
0.095031 -0.254414 0.925338 149 40 32 
0.095268 -0.254286 0.925083 149 41 32 
0.094558 -0.253803 0.924090 148 39 34 
0.094897 -0.253974 0.924443 149 40 33 
-0.003828 -0.253423 0.927267 108 18 18 
-0.004065 -0.253994 0.927311 109 18 19 
-0.003595 -0.253652 0.927038 109 18 19 
-0.003946 -0.252903 0.927469 107 18 17 
-0.004064 -0.252717 0.927597 107 18 16 
-0.003712 -0.252995 0.927266 108 18 17 
-0.001842 -0.253478 0.925851 109 18 21 
-0.002846 -0.253150 0.926579 109 18 19 
-0.002783 -0.253084 0.926550 109 18 19 
-0.001738 -0.252876 0.925911 109 18 20 
-0.001902 -0.252331 0.926138 108 18 19 
-0.001916 -0.253026 0.925992 109 18 20 
-0.000528 -0.252676 0.924676 109 17 23 
-0.001125 -0.253314 0.925231 109 18 22 
-0.001476 -0.252144 0.925904 108 18 20 
-0.000778 -0.252637 0.924977 109 17 22 
0.000037 -0.252217 0.924073 108 15 23 
-0.000566 -0.252309 0.924784 108 16 22 
-0.000558 -0.251798 0.924861 108 15 21 
-0.000808 -0.251904 0.925143 108 16 21 
0.001117 -0.252543 0.923060 108 15 20 
0.001479 -0.252637 0.922727 108 14 19 
0.000335 -0.252284 0.923787 108 15 23 
0.000637 -0.251608 0.923611 107 13 22 
0.001013 -0.251534 0.923271 107 13 21 
0.001153 -0.251352 0.923160 107 13 21 
0.002203 -0.252585 0.922299 108 14 19 
0.002848 -0.252434 0.921984 108 14 19 
0.002533 -0.252136 0.922175 108 14 19 
0.002072 -0.251326 0.922490 107 13 20 
0.002481 -0.251430 0.922269 107 13 20 
0.002179 -0.251590 0.922410 107 13 20 
0.003872 -0.251700 0.921598 108 13 16 
0.003264 -0.251387 0.921875 107 13 20 
0.003886 -0.252100 0.921555 108 14 16 
0.004411 -0.250950 0.921427 107 13 18 
0.004734 -0.251733 0.921232 108 13 14 
0.005280 -0.251343 0.920997 109 13 20 
0.005620 -0.251827 0.920796 109 13 20 
0.005333 -0.251989 0.920923 109 13 17 
0.005768 -0.251545 0.920745 109 12 22 
0.005830 -0.251318 0.920732 109 12 22 
0.005223 -0.250998 0.921050 108 12 20 
0.006756 -0.251523 0.920139 109 11 28 
0.006718 -0.251889 0.920141 110 11 27 
0.007076 -0.251223 0.919916 109 10 31 
0.007843 -0.250906 0.919307 109 9 35 
0.007742 -0.251532 0.919372 108 9 36 
0.007095 -0.250951 0.919909 109 10 30 
0.008084 -0.251346 0.919015 108 8 35 
0.008866 -0.251042 0.918109 107 6 29 
0.008160 -0.250651 0.918945 108 8 32 
0.008408 -0.251304 0.918638 107 7 33 
0.009337 -0.251046 0.917532 106 5 27 
0.008831 -0.250369 0.918108 108 7 27 
0.009194 -0.250718 0.917685 107 6 26 
0.009019 -0.250178 0.917860 108 7 25 
0.009915 -0.250653 0.916769 107 11 21 
0.009398 -0.250057 0.917378 108 7 23 
0.010398 -0.250594 0.916152 108 16 16 
0.009443 -0.250384 0.917347 107 7 24 
0.010789 -0.249512 0.915547 105 7 10 
0.009807 -0.249903 0.916845 108 10 19 
0.010379 -0.250155 0.916136 107 14 15 
0.010874 -0.250643 0.915550 107 20 12 
0.011956 -0.250157 0.914389 108 48 54 
0.011083 -0.249946 0.915258 106 18 17 
0.011903 -0.250181 0.914446 108 47 52 
0.012426 -0.249143 0.913781 101 37 56 
0.011808 -0.249255 0.914437 103 26 38 
0.012330 -0.249365 0.913908 102 40 56 
0.011508 -0.249219 0.914743 103 18 27 
0.012508 -0.249645 0.913768 104 50 64 
0.012514 -0.249864 0.913788 106 55 68 
0.012441 -0.249868 0.913855 106 55 67 
0.013851 -0.248376 0.912402 98 28 50 
0.013406 -0.249021 0.912881 102 40 58 
0.013562 -0.248939 0.912730 101 39 57 
0.014323 -0.248813 0.912160 107 51 75 
0.014448 -0.249383 0.912161 114 69 90 
0.014630 -0.249822 0.912116 120 86 106 
0.015412 -0.249550 0.911671 132 107 139 
0.014142 -0.248379 0.912222 101 35 57 
0.016374 -0.249521 0.911248 149 125 143 
0.016173 -0.249033 0.911342 142 110 128 
0.015662 -0.249560 0.911562 137 113 143 
0.016017 -0.248487 0.911435 136 95 113 
0.016966 -0.249438 0.910994 159 134 143 
0.017771 -0.249089 0.910730 158 124 137 
0.017193 -0.249385 0.910916 160 133 143 
0.017391 -0.248419 0.910978 155 115 126 
0.018273 -0.248392 0.910678 160 126 138 
0.018256 -0.248109 0.910743 161 128 138 
0.018106 -0.248491 0.910715 159 123 135 
0.019195 -0.248746 0.910132 159 125 134 
0.018647 -0.248226 0.910562 162 131 141 
0.019548 -0.248743 0.909926 158 124 129 
0.019994 -0.248288 0.909855 166 129 131 
0.019941 -0.248634 0.909766 161 125 128 
0.019350 -0.248292 0.910168 163 129 135 
0.020999 -0.248989 0.909136 158 120 112 
0.020461 -0.248340 0.909611 166 128 125 
0.021141 -0.248889 0.909100 160 121 111 
0.021378 -0.247896 0.909383 170 132 126 
0.020820 -0.248052 0.909554 169 131 126 
0.021625 -0.248184 0.909155 167 129 119 
0.021831 -0.248029 0.909090 168 132 125 
0.022340 -0.248431 0.908605 165 130 125 
0.022410 -0.247529 0.908949 171 139 139 
0.022780 -0.247436 0.908764 171 142 143 
0.022644 -0.248172 0.908525 167 135 133 
0.023283 -0.247878 0.908261 168 141 144 
0.024246 -0.248289 0.907474 168 144 155 
0.024075 -0.248126 0.907653 168 145 154 
0.023894 -0.247496 0.908109 171 145 156 
0.023789 -0.247759 0.908008 170 145 153 
0.024476 -0.248358 0.907301 168 145 158 
0.025123 -0.247637 0.907253 173 147 160 
0.024866 -0.247727 0.907405 171 146 161 
0.025029 -0.248086 0.907061 170 147 158 
0.025641 -0.247524 0.906904 174 150 158 
0.025486 -0.247021 0.907325 175 151 162 
0.025350 -0.247323 0.907256 174 149 161 
0.026710 -0.248030 0.905857 173 152 151 
0.026889 -0.247470 0.906077 174 154 154 
0.026756 -0.247342 0.906234 175 154 155 
0.027166 -0.247579 0.905839 174 153 153 
0.026222 -0.246899 0.906820 176 156 158 
0.027071 -0.247204 0.906096 175 155 156 
0.028022 -0.247376 0.905406 175 154 152 
0.027986 -0.247464 0.905381 175 153 151 
0.027657 -0.246792 0.905918 176 156 157 
0.028520 -0.246589 0.905463 178 154 153 
0.028864 -0.247149 0.904999 177 152 148 
0.028736 -0.247305 0.905015 176 153 148 
0.029502 -0.247344 0.904588 178 151 146 
0.029785 -0.247133 0.904561 179 151 148 
0.029566 -0.247331 0.904567 178 151 146 
0.030353 -0.246514 0.904647 183 156 153 
0.030047 -0.246814 0.904609 181 153 151 
0.030832 -0.246600 0.904457 183 157 154 
0.031477 -0.246982 0.904136 181 155 155 
0.031064 -0.246535 0.904436 183 157 155 
0.031804 -0.246827 0.904119 181 154 156 
0.032450 -0.246960 0.903944 180 153 156 
0.032212 -0.246302 0.904242 184 153 158 
0.033054 -0.246471 0.904110 182 154 156 
0.033356 -0.247156 0.903791 178 152 154 
0.033345 -0.246481 0.904086 182 155 156 
0.034477 -0.247454 0.903484 176 152 152 
0.033922 -0.247005 0.903789 179 153 154 
0.034733 -0.247230 0.903532 178 152 152 
0.034903 -0.246441 0.903786 181 152 154 
0.033895 -0.246243 0.904123 184 156 156 
0.035580 -0.246709 0.903506 180 151 150 
0.036216 -0.246999 0.903226 178 150 146 
0.036392 -0.246826 0.903237 179 151 146 
0.036689 -0.246242 0.903354 180 154 151 
0.036809 -0.247255 0.902969 176 149 142 
0.037364 -0.246518 0.903068 177 146 144 
0.037810 -0.246750 0.902851 174 140 140 
0.037931 -0.246475 0.902882 176 142 144 
0.039040 -0.246749 0.902430 173 137 138 
0.039207 -0.247016 0.902302 171 134 134 
0.038403 -0.246100 0.902818 178 143 148 
0.039558 -0.246101 0.902427 177 142 147 
0.039594 -0.245728 0.902514 179 146 152 
0.038743 -0.245941 0.902745 178 145 150 
0.040432 -0.246743 0.902014 171 121 133 
0.040563 -0.246833 0.901956 170 117 130 
0.040580 -0.246094 0.902149 175 130 142 
0.041173 -0.246673 0.901840 169 110 129 
0.042235 -0.246494 0.901743 171 122 127 
0.041665 -0.246655 0.901773 169 113 127 
0.042126 -0.246184 0.901854 173 128 133 
0.042731 -0.246239 0.901796 172 125 130 
0.042583 -0.246156 0.901834 173 127 132 
0.043819 -0.246674 0.901577 169 145 131 
0.043132 -0.246321 0.901742 171 133 132 
0.044170 -0.246297 0.901686 171 147 131 
0.044101 -0.246671 0.901560 169 150 132 
0.044554 -0.246378 0.901582 170 146 131 
0.044836 -0.246404 0.901502 169 145 133 
0.045406 -0.245540 0.901655 165 124 119 
0.045719 -0.246123 0.901373 164 131 126 
0.046744 -0.246548 0.901186 160 120 116 
0.047208 -0.246760 0.901102 159 116 112 
0.046840 -0.245849 0.901420 156 94 96 
0.047263 -0.246229 0.901280 155 93 96 
0.047276 -0.245775 0.901434 151 75 82 
0.048475 -0.246649 0.901038 138 59 86 
0.047764 -0.246076 0.901293 146 66 82 
0.048369 -0.245505 0.901436 134 33 50 
0.048764 -0.245451 0.901421 128 21 39 
0.049963 -0.246564 0.901048 118 9 47 
0.049277 -0.246319 0.901125 126 25 56 
0.049673 -0.245560 0.901387 119 10 35 
0.050077 -0.246405 0.901103 116 5 42 
0.050611 -0.246732 0.901017 115 3 40 
0.050591 -0.245957 0.901279 114 3 33 
0.050935 -0.245875 0.901335 115 4 26 
0.050988 -0.245868 0.901342 115 4 26 
0.051456 -0.246261 0.901247 117 4 21 
0.052027 -0.246142 0.901364 120 5 22 
0.052140 -0.246103 0.901407 120 5 22 
0.053149 -0.246127 0.901664 124 9 21 
0.052517 -0.245514 0.901708 123 6 24 
0.054144 -0.246403 0.901702 124 11 19 
0.054639 -0.246855 0.901588 123 11 19 
0.054342 -0.245921 0.901879 125 10 19 
0.054054 -0.246047 0.901817 125 10 19 
0.054731 -0.245978 0.901887 125 10 19 
0.055985 -0.246904 0.902043 124 13 21 
0.055218 -0.245954 0.902019 126 10 19 
0.055939 -0.246654 0.902103 124 12 21 
0.055849 -0.245786 0.902343 126 10 17 
0.056207 -0.246267 0.902342 125 12 18 
0.056728 -0.246946 0.902342 124 13 22 
0.056792 -0.246193 0.902609 125 12 17 
0.056599 -0.246857 0.902319 124 13 21 
0.058039 -0.247121 0.902820 125 15 24 
0.057950 -0.246341 0.903072 125 13 21 
0.057873 -0.246658 0.902918 125 14 22 
0.058281 -0.247248 0.902876 126 15 25 
0.059207 -0.247184 0.903296 126 13 25 
0.058434 -0.246161 0.903356 125 12 21 
0.059501 -0.247015 0.903505 126 13 26 
0.058980 -0.246461 0.903493 125 12 23 
0.060232 -0.247110 0.903812 127 14 28 
0.060218 -0.247147 0.903789 127 14 28 
0.059945 -0.246992 0.903729 126 13 27 
0.060699 -0.247045 0.904068 127 14 30 
0.061119 -0.247136 0.904253 127 14 31 
0.060587 -0.246712 0.904180 126 13 29 
0.061735 -0.246950 0.904609 126 14 33 
0.062446 -0.247615 0.904535 127 15 35 
0.061905 -0.246429 0.904992 126 13 34 
0.062698 -0.247021 0.905004 126 14 36 
0.062636 -0.246523 0.905279 126 13 36 
0.063424 -0.247482 0.904852 127 15 36 
0.063309 -0.247166 0.905034 126 15 36 
0.064277 -0.247052 0.905301 126 15 36 
0.063133 -0.246537 0.905421 126 14 36 
0.063245 -0.246792 0.905264 126 14 36 
0.065514 -0.247856 0.905062 129 15 38 
0.065707 -0.247887 0.905093 129 15 38 
0.065645 -0.247433 0.905381 128 15 37 
0.064915 -0.246580 0.905777 126 15 35 
0.066547 -0.247520 0.905521 130 15 38 
0.066785 -0.247578 0.905535 130 15 39 
0.067258 -0.246765 0.906106 129 15 36 
0.067052 -0.246784 0.906060 129 15 36 
0.067649 -0.247822 0.905582 131 16 41 
0.068459 -0.247809 0.905873 131 16 40 
0.068998 -0.247422 0.906234 130 16 38 
0.068506 -0.247559 0.906027 131 16 39 
0.068846 -0.247016 0.906400 130 16 37 
0.069248 -0.247341 0.906415 130 16 38 
0.069501 -0.248110 0.906181 132 16 41 
0.070370 -0.248284 0.906607 132 16 42 
0.069226 -0.246824 0.906632 130 16 36 
0.069972 -0.247427 0.906739 131 16 38 
0.070575 -0.248068 0.906780 132 16 41 
0.071483 -0.248025 0.907322 132 16 40 
0.070730 -0.247460 0.907045 131 16 38 
0.071049 -0.247934 0.907094 132 16 40 
0.071512 -0.247271 0.907471 131 16 35 
0.071575 -0.247659 0.907441 132 16 37 
0.071915 -0.247321 0.907638 131 16 34 
0.072307 -0.248593 0.907633 134 16 42 
0.072849 -0.247960 0.908008 133 16 38 
0.073236 -0.248382 0.908148 134 17 41 
0.073518 -0.247370 0.908417 132 16 34 
0.073156 -0.248070 0.908151 133 17 39 
0.074563 -0.248450 0.908770 135 18 43 
0.074005 -0.248073 0.908564 134 17 39 
0.074218 -0.248768 0.908575 135 18 44 
0.074819 -0.247863 0.908919 134 17 41 
0.075340 -0.248693 0.909073 136 20 47 
0.074810 -0.248339 0.908891 135 19 43 
0.075664 -0.248689 0.909221 136 20 48 
0.076108 -0.248568 0.909436 136 20 48 
0.075616 -0.248738 0.909196 136 20 48 
0.076566 -0.248707 0.909641 136 22 49 
0.076770 -0.248955 0.909726 137 23 51 
0.076952 -0.249073 0.909801 137 23 52 
0.077500 -0.248380 0.910114 136 22 49 
0.077246 -0.248687 0.909967 137 23 50 
0.077149 -0.249128 0.909910 137 24 52 
0.078297 -0.248844 0.910645 137 24 51 
0.078155 -0.248062 0.910723 135 20 47 
0.077784 -0.248532 0.910284 136 23 50 
0.079506 -0.249393 0.911360 138 27 53 
0.078723 -0.248734 0.911017 136 23 49 
0.079323 -0.249108 0.911314 137 25 51 
0.079657 -0.248347 0.911866 135 21 47 
0.080174 -0.248942 0.912044 137 25 50 
0.079659 -0.248733 0.911701 136 24 49 
0.078901 -0.248266 0.911264 135 21 47 
0.080484 -0.248734 0.912389 136 24 49 
0.081718 -0.250012 0.912833 140 32 56 
0.080649 -0.249615 0.912139 139 29 54 
0.081468 -0.249202 0.912984 138 27 51 
0.081859 -0.249185 0.913309 138 27 51 
0.081429 -0.249582 0.912786 139 29 54 
0.082481 -0.249590 0.913815 139 29 53 
0.082171 -0.250079 0.913262 141 32 56 
0.082940 -0.250130 0.914099 141 31 56 
0.082337 -0.250040 0.913464 141 32 56 
0.083152 -0.249926 0.914428 140 30 55 
0.082325 -0.248967 0.913912 137 26 50 
0.083249 -0.249624 0.914683 139 29 54 
0.084454 -0.250077 0.915750 141 30 56 
0.084540 -0.250516 0.915629 142 32 58 
0.083995 -0.250102 0.915271 141 30 56 
0.084780 -0.250054 0.916062 140 30 56 
0.085099 -0.249575 0.916543 139 29 54 
0.084680 -0.249537 0.916170 139 29 54 
0.085262 -0.250223 0.916441 141 31 57 
0.085505 -0.250384 0.916574 141 32 58 
0.085690 -0.250838 0.916541 143 33 60 
0.085681 -0.250804 0.916548 143 33 60 
0.086209 -0.250085 0.917199 140 31 56 
0.085670 -0.249691 0.916949 139 30 55 
0.086640 -0.249912 0.917531 139 30 55 
0.087526 -0.250505 0.918108 141 32 56 
0.086956 -0.250239 0.917653 140 31 56 
0.087070 -0.250806 0.917607 142 32 58 
0.087051 -0.251130 0.917505 143 33 60 
0.087985 -0.250587 0.918512 141 33 57 
0.088370 -0.250200 0.918974 140 32 55 
0.088572 -0.251484 0.918814 144 37 59 
0.089019 -0.251222 0.919232 143 36 57 
0.089032 -0.251237 0.919238 143 36 57 
0.088632 -0.251180 0.918952 143 36 58 
0.089917 -0.251024 0.920005 142 36 55 
0.089330 -0.250879 0.919568 142 35 56 
0.090280 -0.251163 0.920260 143 36 54 
0.090295 -0.251904 0.920012 145 38 56 
0.091112 -0.251712 0.920434 144 37 51 
0.091586 -0.251936 0.920556 145 37 50 
0.091910 -0.250960 0.921225 141 35 49 
0.091514 -0.251108 0.920922 142 35 50 
0.091846 -0.251363 0.920983 143 36 49 
0.092197 -0.251749 0.920894 144 37 46 
0.091961 -0.251157 0.921153 142 35 48 
0.092518 -0.250956 0.921408 141 34 45 
0.092901 -0.251590 0.921142 143 36 41 
0.092791 -0.251383 0.921233 142 35 43 
0.093537 -0.252036 0.921052 145 37 37 
0.093914 -0.251406 0.921454 143 35 38 
0.094646 -0.251222 0.921755 142 35 35 
0.094419 -0.251412 0.921538 143 36 36 
0.095090 -0.251799 0.921389 145 38 32 
-0.004165 -0.251881 0.928107 107 18 15 
-0.003986 -0.252190 0.927765 107 18 16 
-0.003612 -0.252124 0.927477 107 18 16 
-0.003224 -0.251674 0.927420 107 18 17 
-0.003237 -0.251108 0.927783 107 18 16 
-0.003540 -0.251135 0.928028 107 18 16 
-0.003143 -0.251989 0.927155 107 18 17 
-0.002769 -0.251601 0.927118 107 18 17 
-0.002363 -0.252065 0.926545 107 18 18 
-0.002222 -0.252138 0.926400 107 18 19 
-0.001798 -0.251362 0.926560 107 18 19 
-0.001512 -0.250823 0.926655 107 18 19 
-0.001525 -0.251190 0.926455 107 18 19 
-0.000987 -0.251759 0.925439 108 16 20 
-0.000494 -0.251613 0.924867 107 15 21 
-0.000590 -0.251694 0.924948 107 15 21 
-0.000782 -0.251356 0.925395 108 16 20 
0.000049 -0.251081 0.924382 108 14 22 
-0.000024 -0.251062 0.924494 108 14 22 
-0.000256 -0.251171 0.924773 108 15 21 
-0.000144 -0.250785 0.924781 108 15 21 
0.000243 -0.250734 0.924324 107 15 22 
0.000846 -0.250717 0.923725 107 14 21 
0.000312 -0.250878 0.924192 107 14 22 
0.000581 -0.250280 0.924166 107 15 21 
0.001158 -0.250036 0.923650 107 14 22 
0.001221 -0.250770 0.923316 107 13 21 
0.001972 -0.251044 0.922593 107 13 21 
0.001923 -0.250570 0.922793 107 13 21 
0.002971 -0.250170 0.922302 107 13 22 
0.002560 -0.250224 0.922545 107 13 22 
0.002798 -0.249940 0.922474 107 13 22 
0.004347 -0.250758 0.921485 107 13 19 
0.004101 -0.250668 0.921619 107 13 20 
0.003256 -0.250882 0.921939 107 13 21 
0.003709 -0.249682 0.922030 108 13 22 
0.004642 -0.249909 0.921473 109 12 21 
0.004417 -0.249793 0.921615 108 12 22 
0.005206 -0.250375 0.921125 109 12 21 
0.004999 -0.250409 0.921223 108 12 21 
0.005376 -0.250134 0.921073 109 12 23 
0.005819 -0.249874 0.920885 110 11 24 
0.006291 -0.250482 0.920576 110 11 25 
0.005781 -0.249353 0.920966 111 10 25 
0.006392 -0.249675 0.920592 111 10 26 
0.006697 -0.249492 0.920362 111 10 27 
0.006921 -0.249702 0.920152 110 10 28 
0.007842 -0.249667 0.919321 110 9 31 
0.007524 -0.249785 0.919616 110 9 31 
0.007612 -0.250063 0.919538 110 9 31 
0.007734 -0.250064 0.919425 110 9 32 
0.008063 -0.249133 0.919036 110 8 29 
0.008288 -0.249654 0.918757 110 8 28 
0.007852 -0.249402 0.919307 110 8 31 
0.008565 -0.249934 0.918410 109 8 27 
0.009197 -0.248949 0.917521 108 7 22 
0.009382 -0.248603 0.917226 108 7 21 
0.008767 -0.248745 0.918073 109 7 24 
0.008611 -0.248825 0.918293 109 7 25 
0.009490 -0.248507 0.917076 107 6 20 
0.009704 -0.248461 0.916799 107 6 18 
0.009891 -0.249471 0.916693 107 6 17 
0.009688 -0.248982 0.916887 107 6 18 
0.010836 -0.248582 0.915335 104 3 9 
0.010351 -0.248635 0.915987 105 5 13 
0.010012 -0.247887 0.916282 106 5 16 
0.010234 -0.247925 0.915996 105 4 15 
0.011438 -0.248171 0.914616 101 11 24 
0.011939 -0.248836 0.914246 99 20 36 
0.011060 -0.248093 0.914983 103 5 14 
0.010957 -0.247715 0.915010 103 3 11 
0.012190 -0.248214 0.913849 99 19 41 
0.011818 -0.247300 0.914012 101 3 26 
0.012222 -0.247481 0.913634 100 8 35 
0.013306 -0.248080 0.912803 98 21 46 
0.012627 -0.247292 0.913197 99 7 38 
0.012558 -0.248460 0.913547 98 24 47 
0.012439 -0.247581 0.913433 99 10 40 
0.013198 -0.247096 0.912600 99 6 37 
0.013122 -0.247429 0.912782 99 11 40 
0.013797 -0.247214 0.912076 99 10 40 
0.013839 -0.248182 0.912359 98 25 48 
0.014533 -0.247896 0.911930 108 40 65 
0.014150 -0.247810 0.912050 102 26 52 
0.014647 -0.247746 0.911837 110 42 68 
0.015106 -0.246556 0.911407 116 23 59 
0.015483 -0.246637 0.911322 122 33 69 
0.015123 -0.246688 0.911431 117 27 62 
0.015758 -0.246927 0.911305 127 48 79 
0.015764 -0.248067 0.911550 130 81 102 
0.016392 -0.247922 0.911337 141 92 108 
0.016845 -0.247738 0.911181 149 100 113 
0.016027 -0.246781 0.911228 132 54 82 
0.016465 -0.246752 0.911149 139 69 91 
0.017173 -0.247802 0.911109 154 110 120 
0.017863 -0.247380 0.910850 156 114 124 
0.018440 -0.247792 0.910709 162 130 139 
0.017963 -0.246978 0.910801 157 112 123 
0.019284 -0.247275 0.910337 169 131 136 
0.019184 -0.246970 0.910369 168 128 134 
0.019303 -0.247589 0.910341 169 133 138 
0.019570 -0.246587 0.910261 175 129 133 
0.019585 -0.246872 0.910234 173 130 134 
0.020267 -0.247650 0.909935 174 135 136 
0.020902 -0.247332 0.909714 175 135 132 
0.020179 -0.247300 0.909996 176 134 135 
0.021129 -0.246799 0.909708 178 133 131 
0.021196 -0.246970 0.909655 177 134 131 
0.022036 -0.246598 0.909366 179 135 136 
0.021712 -0.247363 0.909402 174 136 132 
0.022035 -0.247120 0.909265 175 137 136 
0.022433 -0.246463 0.909187 179 135 139 
0.022380 -0.246197 0.909285 181 133 138 
0.023532 -0.247208 0.908439 172 144 152 
0.024448 -0.247035 0.908050 174 143 164 
0.023261 -0.245911 0.908919 183 132 144 
0.023626 -0.246275 0.908645 180 135 150 
0.026036 -0.246857 0.906972 177 155 159 
0.025219 -0.247030 0.907531 175 149 163 
0.025403 -0.246652 0.907523 178 148 159 
0.025954 -0.246391 0.907219 181 150 155 
0.025184 -0.245917 0.907960 184 139 153 
0.025746 -0.246513 0.907316 179 150 156 
0.027147 -0.246553 0.906364 178 155 157 
0.026610 -0.246078 0.906911 183 148 152 
0.027489 -0.246161 0.906301 181 151 154 
0.027366 -0.245902 0.906487 183 148 152 
0.026994 -0.245944 0.906715 183 147 152 
0.028222 -0.246391 0.905736 179 153 154 
0.027814 -0.246447 0.905975 178 154 156 
0.028559 -0.245413 0.905912 187 138 145 
0.028265 -0.245540 0.906052 186 142 147 
0.028562 -0.245903 0.905717 184 147 149 
0.029623 -0.245958 0.905144 184 147 149 
0.029225 -0.246127 0.905219 182 147 149 
0.029351 -0.245022 0.905597 190 129 141 
0.030288 -0.244947 0.905245 191 137 142 
0.030526 -0.245814 0.904862 187 151 150 
0.031415 -0.245690 0.904655 187 149 152 
0.030990 -0.245943 0.904680 186 153 153 
0.030953 -0.246157 0.904618 185 156 155 
0.032131 -0.245430 0.904558 190 141 152 
0.031946 -0.245551 0.904565 188 144 152 
0.031221 -0.245190 0.904869 190 142 147 
0.033038 -0.246084 0.904272 185 154 157 
0.032844 -0.245383 0.904514 190 142 151 
0.033503 -0.244810 0.904744 197 137 144 
0.033549 -0.245380 0.904515 191 145 150 
0.032661 -0.244828 0.904735 195 133 146 
0.034542 -0.245938 0.904068 185 151 154 
0.034072 -0.245815 0.904244 187 151 153 
0.033900 -0.245484 0.904424 190 147 150 
0.034817 -0.244857 0.904382 194 136 145 
0.034744 -0.244722 0.904452 195 134 144 
0.035186 -0.245524 0.904034 187 144 150 
0.035666 -0.245243 0.903992 189 142 148 
0.035413 -0.244892 0.904185 192 136 145 
0.036084 -0.244713 0.904008 193 139 146 
0.036258 -0.245181 0.903819 189 145 149 
0.036700 -0.244539 0.903841 193 143 147 
0.036966 -0.245333 0.903530 186 149 151 
0.036865 -0.245597 0.903494 184 152 152 
0.037007 -0.244679 0.903694 192 144 147 
0.037370 -0.245038 0.903468 188 145 149 
0.039194 -0.245269 0.902766 183 144 152 
0.038598 -0.245214 0.902981 184 143 151 
0.039747 -0.245455 0.902531 181 145 152 
0.039460 -0.244782 0.902794 187 141 151 
0.040312 -0.244868 0.902531 185 140 149 
0.040210 -0.245232 0.902467 182 142 150 
0.040953 -0.244361 0.902435 189 141 147 
0.039943 -0.244386 0.902742 190 138 149 
0.042363 -0.245521 0.902060 177 139 144 
0.041350 -0.244525 0.902304 187 142 146 
0.041635 -0.244412 0.902311 188 141 145 
0.042503 -0.244157 0.902374 189 133 142 
0.042852 -0.244557 0.902271 185 133 141 
0.043498 -0.245160 0.902084 179 137 136 
0.043217 -0.244740 0.902204 183 134 138 
0.043341 -0.244306 0.902305 186 128 133 
0.043681 -0.244834 0.902154 181 134 133 
0.044369 -0.244745 0.902124 180 125 121 
0.044758 -0.245020 0.901957 174 124 120 
0.045544 -0.245151 0.901723 166 114 112 
0.045037 -0.244458 0.902009 175 105 109 
0.045992 -0.244517 0.901752 163 78 92 
0.045873 -0.245304 0.901612 161 109 108 
0.047109 -0.245216 0.901595 151 60 73 
0.046288 -0.244382 0.901767 161 63 81 
0.046598 -0.244478 0.901728 158 58 74 
0.047765 -0.244763 0.901595 143 34 49 
0.047631 -0.245085 0.901568 145 44 58 
0.047704 -0.245201 0.901548 143 44 58 
0.047864 -0.244061 0.901669 146 25 35 
0.048637 -0.244672 0.901536 135 18 27 
0.049298 -0.245065 0.901479 126 13 28 
0.049279 -0.245076 0.901478 126 13 28 
0.049496 -0.244260 0.901577 133 11 18 
0.050272 -0.244834 0.901521 122 5 28 
0.049170 -0.244017 0.901601 139 13 13 
0.050922 -0.245332 0.901507 116 4 30 
0.051186 -0.244988 0.901571 123 4 27 
0.051258 -0.244304 0.901691 131 4 29 
0.051871 -0.244503 0.901743 128 4 32 
0.052803 -0.245004 0.901881 128 7 25 
0.052280 -0.244433 0.901854 130 5 30 
0.053250 -0.245453 0.901911 126 9 20 
0.052159 -0.244149 0.901880 132 4 32 
0.053260 -0.244689 0.902092 128 9 22 
0.052852 -0.244303 0.902059 130 7 26 
0.053914 -0.245100 0.902084 127 10 19 
0.054667 -0.245332 0.902078 127 10 19 
0.054817 -0.244900 0.902193 127 10 20 
0.054969 -0.244956 0.902189 127 10 20 
0.055457 -0.244645 0.902461 128 10 19 
0.055492 -0.245503 0.902273 126 10 17 
0.055419 -0.244807 0.902407 127 10 19 
0.056059 -0.244394 0.902718 126 8 16 
0.055109 -0.244148 0.902428 128 9 21 
0.056038 -0.244445 0.902702 126 8 16 
0.056899 -0.245613 0.902834 125 10 15 
0.056766 -0.245208 0.902845 125 9 14 
0.057217 -0.245608 0.902974 125 10 16 
0.057600 -0.244412 0.903344 124 8 16 
0.057200 -0.244787 0.903106 125 8 16 
0.057434 -0.245026 0.903167 125 9 17 
0.058908 -0.245735 0.903710 125 11 22 
0.058536 -0.245097 0.903647 124 10 19 
0.059132 -0.245899 0.903786 125 11 23 
0.059535 -0.244879 0.904161 124 8 22 
0.059265 -0.245466 0.903924 125 10 23 
0.059360 -0.244806 0.904091 124 8 21 
0.059707 -0.244990 0.904223 124 8 23 
0.060436 -0.245928 0.904420 125 11 28 
0.059977 -0.245424 0.904280 125 10 25 
0.060926 -0.245720 0.904710 125 11 30 
0.061133 -0.245592 0.904846 125 11 30 
0.061792 -0.245960 0.905066 125 12 33 
0.061903 -0.245700 0.905166 125 11 33 
0.062354 -0.246166 0.905264 125 13 35 
0.062101 -0.245082 0.905426 125 9 32 
0.061426 -0.244896 0.905134 125 9 30 
0.062386 -0.245008 0.905593 125 9 33 
0.063159 -0.245878 0.905641 126 12 35 
0.062892 -0.246055 0.905538 125 12 36 
0.063636 -0.246220 0.905634 126 13 36 
0.063834 -0.245645 0.905888 126 12 34 
0.063566 -0.245192 0.905993 126 11 34 
0.065222 -0.246056 0.906067 127 13 34 
0.064430 -0.245600 0.906098 127 12 33 
0.064803 -0.246016 0.905997 127 13 34 
0.065734 -0.246251 0.906101 127 14 34 
0.065721 -0.245761 0.906343 128 13 32 
0.065765 -0.245702 0.906385 128 13 32 
0.066445 -0.246393 0.906170 128 14 34 
0.066882 -0.246264 0.906306 129 15 34 
0.067354 -0.246197 0.906441 129 15 34 
0.067272 -0.245605 0.906762 129 14 31 
0.068069 -0.246295 0.906578 129 15 34 
0.068312 -0.246239 0.906679 129 15 34 
0.067911 -0.245604 0.906929 129 15 31 
0.068959 -0.246459 0.906738 129 15 34 
0.068386 -0.245801 0.906953 129 15 32 
0.069234 -0.246304 0.906928 129 15 34 
0.069954 -0.246820 0.906927 129 16 35 
0.069434 -0.245905 0.907239 129 15 32 
0.070414 -0.245867 0.907595 129 16 32 
0.070349 -0.246365 0.907326 129 16 33 
0.070038 -0.245841 0.907482 129 16 32 
0.070759 -0.246266 0.907527 130 16 33 
0.071189 -0.246215 0.907755 130 16 32 
0.071748 -0.246803 0.907731 131 16 32 
0.072148 -0.246669 0.907925 131 16 31 
0.072233 -0.246134 0.908130 131 16 29 
0.071812 -0.246474 0.907884 131 16 31 
0.073479 -0.247176 0.908443 132 16 33 
0.072673 -0.246448 0.908258 131 16 30 
0.072425 -0.246994 0.907949 132 16 32 
0.072655 -0.245964 0.908370 131 16 29 
0.072620 -0.245981 0.908358 131 16 29 
0.073248 -0.245856 0.908562 131 16 28 
0.074820 -0.246897 0.909001 133 16 37 
0.074495 -0.247230 0.908840 133 16 36 
0.075348 -0.246623 0.909133 132 15 39 
0.075071 -0.246923 0.909066 133 16 38 
0.075652 -0.246238 0.909247 132 15 38 
0.075951 -0.247254 0.909384 133 17 42 
0.075949 -0.246452 0.909365 132 16 40 
0.076391 -0.246791 0.909540 133 17 42 
0.076456 -0.246432 0.909523 133 17 41 
0.077790 -0.247716 0.910453 134 19 46 
0.077726 -0.247634 0.910394 134 19 45 
0.077821 -0.247406 0.910446 134 19 45 
0.077226 -0.247391 0.909980 134 19 45 
0.078245 -0.246898 0.910745 133 18 42 
0.077740 -0.246466 0.910304 133 17 42 
0.077748 -0.246581 0.910318 133 17 42 
0.079992 -0.248086 0.912150 135 21 46 
0.078989 -0.247309 0.911353 134 19 43 
0.079449 -0.247531 0.911708 134 20 44 
0.080045 -0.247194 0.912203 133 19 42 
0.079845 -0.246740 0.912042 133 18 41 
0.079988 -0.247241 0.912155 133 19 42 
0.080714 -0.248293 0.912701 135 22 46 
0.080717 -0.247429 0.912716 134 20 43 
0.080879 -0.247804 0.912828 135 21 45 
0.081449 -0.248411 0.913235 136 23 47 
0.080883 -0.247003 0.913019 133 18 41 
0.081470 -0.247792 0.913391 134 21 45 
0.081888 -0.248468 0.913615 136 24 48 
0.081959 -0.247816 0.913933 134 21 45 
0.082559 -0.248620 0.914323 136 24 49 
0.083044 -0.248932 0.914761 137 25 50 
0.082253 -0.248142 0.914148 135 22 46 
0.082292 -0.247740 0.914339 134 20 45 
0.082372 -0.247728 0.914437 134 20 45 
0.083332 -0.247827 0.915687 134 21 45 
0.083373 -0.247745 0.915787 133 21 45 
0.083077 -0.248337 0.915055 135 23 48 
0.084381 -0.249146 0.916085 137 27 52 
0.084453 -0.249014 0.916231 137 27 51 
0.084630 -0.248958 0.916435 137 27 51 
0.084689 -0.249221 0.916339 138 28 52 
0.085014 -0.248370 0.917279 135 25 49 
0.085091 -0.249000 0.916903 137 27 52 
0.085145 -0.249345 0.916712 138 29 53 
0.084871 -0.249074 0.916602 137 27 52 
0.085457 -0.249302 0.917050 138 29 53 
0.086335 -0.249636 0.917448 138 29 54 
0.085323 -0.249511 0.916791 138 29 54 
0.087031 -0.248815 0.918679 135 26 50 
0.086326 -0.248667 0.918222 135 26 50 
0.086624 -0.248780 0.918372 135 26 51 
0.087147 -0.249796 0.917991 138 30 54 
0.088026 -0.249653 0.919038 138 30 53 
0.087441 -0.249614 0.918451 138 29 53 
0.088621 -0.249628 0.919732 138 30 53 
0.088729 -0.249080 0.920348 136 28 51 
0.088707 -0.249676 0.919787 138 30 53 
0.088187 -0.249041 0.919766 136 28 51 
0.089138 -0.249570 0.920295 137 30 52 
0.089015 -0.249660 0.920096 138 30 52 
0.088899 -0.250019 0.919656 139 32 54 
0.090070 -0.249888 0.920864 138 31 51 
0.090297 -0.250223 0.920780 139 33 52 
0.089889 -0.249420 0.921103 136 29 51 
0.090265 -0.250357 0.920637 140 33 52 
0.090684 -0.249803 0.921411 137 31 51 
0.090599 -0.250307 0.920915 139 33 51 
0.090385 -0.250240 0.920839 139 33 52 
0.092057 -0.249804 0.922347 136 30 48 
0.091479 -0.249921 0.921834 137 31 49 
0.091049 -0.249668 0.921776 136 30 50 
0.091250 -0.249687 0.921897 136 30 49 
0.092493 -0.250796 0.921512 140 34 46 
0.093123 -0.250520 0.921982 139 32 43 
0.092705 -0.250418 0.921951 139 32 45 
0.093027 -0.249945 0.922485 137 30 44 
0.092975 -0.249872 0.922538 136 30 45 
0.093923 -0.250044 0.922619 137 31 41 
0.093722 -0.250215 0.922411 138 31 42 
0.094013 -0.250517 0.922212 139 32 40 
0.094578 -0.249908 0.922964 136 30 39 
0.095065 -0.250476 0.922562 139 32 35 
0.093988 -0.249889 0.922782 136 30 42 
-0.003996 -0.250336 0.928834 106 17 15 
-0.004298 -0.251155 0.928663 106 18 14 
-0.003336 -0.250826 0.928024 106 18 16 
-0.003951 -0.250460 0.928731 106 18 15 
-0.004378 -0.249937 0.929364 106 17 14 
-0.003370 -0.249935 0.928529 106 18 15 
-0.003529 -0.249742 0.928764 106 17 14 
-0.002946 -0.250891 0.927675 107 18 17 
-0.002831 -0.250556 0.927770 107 18 16 
-0.002788 -0.250612 0.927709 107 18 16 
-0.002045 -0.249596 0.927675 107 16 17 
-0.001634 -0.249977 0.927174 107 17 18 
-0.002464 -0.249585 0.928002 107 17 16 
-0.001314 -0.249543 0.927027 107 16 18 
-0.001452 -0.250279 0.926863 107 17 18 
-0.001234 -0.249834 0.926769 107 16 18 
-0.000210 -0.250127 0.925165 107 16 21 
-0.000127 -0.248950 0.925461 107 14 20 
-0.000987 -0.249458 0.926583 107 15 19 
-0.001035 -0.249238 0.926731 107 15 18 
0.000069 -0.249316 0.925041 107 14 21 
0.000874 -0.249774 0.924040 108 14 22 
0.000382 -0.249743 0.924562 108 15 21 
0.000661 -0.249894 0.924221 108 15 22 
0.000499 -0.249673 0.924465 108 14 22 
0.000493 -0.248803 0.924770 108 13 21 
0.001466 -0.248824 0.923749 109 13 22 
0.001038 -0.248791 0.924206 108 13 22 
0.001947 -0.249172 0.923253 108 13 23 
0.002298 -0.249247 0.923005 108 13 23 
0.002599 -0.249382 0.922768 108 13 23 
0.002686 -0.248502 0.922963 109 13 23 
0.002833 -0.248935 0.922747 108 13 23 
0.002917 -0.248514 0.922799 109 13 23 
0.003877 -0.248994 0.922081 109 12 23 
0.004018 -0.248884 0.922026 109 12 23 
0.003275 -0.249192 0.922381 108 13 23 
0.004596 -0.248585 0.921685 110 10 24 
0.004386 -0.248252 0.921872 110 10 24 
0.004340 -0.248131 0.921918 110 10 24 
0.005296 -0.248572 0.921303 111 10 25 
0.005320 -0.248271 0.921328 111 9 25 
0.004821 -0.248893 0.921504 110 11 24 
