ply
format ascii 1.0
comment Created by CloudCompare v2.12.4 (Kyiv)
comment Created 2023-06-03T13:58:07
obj_info Generated by CloudCompare!
element vertex 1205
property float x
property float y
property float z
property uchar red
property uchar green
property uchar blue
end_header
0.025746 -0.152496 0.934245 159 124 96 
0.026481 -0.152667 0.932578 159 124 100 
0.025672 -0.151727 0.935726 159 123 94 
0.026637 -0.152255 0.933438 159 123 99 
0.026700 -0.151876 0.935261 159 122 97 
0.026711 -0.152326 0.933118 159 123 100 
0.026886 -0.151963 0.934891 159 122 98 
0.025820 -0.151861 0.935123 159 123 95 
0.026160 -0.151961 0.934724 159 123 97 
0.025913 -0.151760 0.935626 159 123 95 
0.027390 -0.151840 0.935652 158 120 98 
0.027539 -0.151999 0.934950 157 120 100 
0.028308 -0.151854 0.935918 155 118 101 
0.027205 -0.152156 0.934082 158 121 100 
0.027741 -0.151782 0.936055 157 119 99 
0.027750 -0.151845 0.935757 157 119 99 
0.027832 -0.152034 0.934887 156 119 100 
0.027542 -0.152007 0.934911 157 120 100 
-0.003791 -0.161241 1.000993 88 40 48 
-0.003783 -0.161398 1.000473 92 46 52 
-0.004634 -0.161019 1.002581 89 22 26 
-0.003488 -0.161449 1.000003 91 52 60 
-0.003842 -0.160954 1.001975 82 29 40 
-0.003994 -0.161137 1.001538 87 34 42 
-0.004635 -0.160916 1.002917 87 18 24 
-0.003574 -0.161167 1.001007 85 40 51 
0.006864 -0.152792 0.944746 152 111 68 
0.006496 -0.152859 0.945524 152 110 71 
0.007659 -0.152624 0.943178 152 113 62 
0.006776 -0.152836 0.944799 152 110 67 
0.006838 -0.152768 0.944946 152 111 69 
0.007402 -0.152599 0.944079 152 115 67 
0.007634 -0.152533 0.943704 152 116 66 
0.007671 -0.152663 0.942948 152 112 60 
0.007069 -0.152724 0.944464 152 112 67 
0.007953 -0.151688 0.943992 157 127 86 
0.007310 -0.152124 0.945800 154 124 87 
0.007661 -0.152212 0.944242 154 121 76 
0.007901 -0.152034 0.943597 155 122 76 
0.007912 -0.151599 0.944313 157 128 90 
0.007754 -0.152475 0.943412 152 116 66 
0.007663 -0.152502 0.943727 152 116 67 
0.006954 -0.152152 0.947172 154 125 94 
0.007405 -0.152174 0.945334 154 122 83 
0.007863 -0.152299 0.943286 153 118 69 
0.008765 -0.152437 0.941801 153 112 61 
0.008256 -0.151568 0.943639 157 127 88 
0.008321 -0.151855 0.943106 156 122 79 
0.008290 -0.151888 0.943071 156 122 78 
0.008921 -0.151864 0.942472 156 120 78 
0.009245 -0.151744 0.941896 157 119 79 
0.009563 -0.152120 0.941265 155 113 69 
0.008189 -0.151443 0.943865 158 129 91 
0.009360 -0.151108 0.941767 161 127 94 
0.009545 -0.151329 0.941401 160 124 88 
0.009918 -0.151362 0.941145 161 125 87 
0.009924 -0.151346 0.941145 161 125 88 
0.009793 -0.151254 0.941201 161 125 89 
0.011030 -0.151126 0.940868 164 129 95 
0.010349 -0.151331 0.941019 162 127 89 
0.010085 -0.151220 0.941114 162 127 91 
0.012557 -0.152278 0.940031 165 131 82 
0.011303 -0.152002 0.940608 161 124 77 
0.011283 -0.152397 0.940539 159 121 68 
0.012011 -0.151450 0.940438 166 132 94 
0.011996 -0.151075 0.940563 166 130 97 
0.012000 -0.151065 0.940565 166 130 98 
0.013293 -0.151514 0.939981 166 128 96 
0.013168 -0.151597 0.940004 166 129 94 
0.013500 -0.151896 0.939774 165 129 94 
0.014270 -0.152065 0.939415 164 127 99 
0.013507 -0.150929 0.940147 166 127 98 
0.013007 -0.150879 0.940313 167 127 98 
0.014411 -0.151996 0.939397 164 127 99 
0.015424 -0.152097 0.938817 162 125 99 
0.015156 -0.152005 0.939000 163 126 99 
0.015488 -0.151694 0.938967 162 125 98 
0.015773 -0.151464 0.938956 162 123 97 
0.015385 -0.150810 0.939481 163 123 95 
0.015846 -0.151410 0.938951 162 123 96 
0.014866 -0.150752 0.939752 164 124 95 
0.016191 -0.151235 0.938877 162 122 96 
0.016522 -0.151599 0.938523 162 123 97 
0.016149 -0.151312 0.938857 162 122 96 
0.016724 -0.151023 0.938767 162 122 95 
0.017087 -0.151397 0.938383 162 123 96 
0.016843 -0.151358 0.938497 161 123 96 
0.018197 -0.151757 0.937626 162 124 97 
0.017974 -0.151585 0.937862 162 124 97 
0.018642 -0.151627 0.937481 162 124 96 
0.018190 -0.151469 0.937827 162 123 96 
0.017634 -0.150565 0.938748 162 121 94 
0.018680 -0.151372 0.937655 162 123 95 
0.018486 -0.150796 0.938220 162 123 93 
0.018112 -0.150896 0.938280 162 122 94 
0.019343 -0.151408 0.937332 163 124 95 
0.019832 -0.151108 0.937331 163 124 94 
0.019276 -0.150986 0.937728 163 124 93 
0.019362 -0.151569 0.937186 163 124 95 
0.019374 -0.150455 0.938148 163 124 91 
0.020205 -0.151237 0.937034 163 124 94 
0.020082 -0.150595 0.937698 163 124 92 
0.020276 -0.150790 0.937427 163 124 92 
0.021202 -0.151287 0.936546 163 124 94 
0.021729 -0.151456 0.936156 162 124 95 
0.020821 -0.150628 0.937337 163 124 92 
0.021647 -0.151034 0.936602 162 124 93 
0.022089 -0.151055 0.936422 161 123 93 
0.022031 -0.150745 0.936765 161 124 92 
0.022052 -0.150455 0.937060 161 124 90 
0.022807 -0.151134 0.936267 160 123 93 
0.023411 -0.151607 0.935759 160 123 95 
0.022937 -0.151077 0.936322 160 123 93 
0.023431 -0.151293 0.936083 160 123 93 
0.023520 -0.150563 0.936799 159 123 91 
0.022844 -0.150710 0.936701 160 123 91 
0.023774 -0.150947 0.936401 159 123 92 
0.023411 -0.150388 0.936980 159 123 90 
0.024251 -0.151167 0.936259 159 123 93 
0.024168 -0.151077 0.936332 159 123 92 
0.024348 -0.151406 0.936041 159 123 93 
0.025126 -0.151529 0.936061 159 123 93 
0.025237 -0.151206 0.936365 159 123 92 
0.024680 -0.150924 0.936565 159 123 91 
0.024591 -0.150651 0.936797 158 122 90 
0.026190 -0.151347 0.936378 159 121 94 
0.026631 -0.151598 0.936228 159 121 96 
0.025453 -0.150842 0.936703 158 122 91 
0.026481 -0.151115 0.936608 158 120 94 
0.026821 -0.150283 0.937212 156 115 94 
0.026732 -0.150872 0.936787 157 118 94 
0.027241 -0.150662 0.936995 156 116 96 
0.027230 -0.150630 0.937016 156 115 96 
0.027340 -0.151699 0.936276 158 120 97 
0.028226 -0.150639 0.937136 151 113 99 
0.028475 -0.151140 0.936868 152 114 100 
0.028162 -0.151231 0.936782 154 115 99 
0.029625 -0.151633 0.936785 152 110 102 
0.029876 -0.151778 0.936747 152 109 102 
0.028980 -0.150789 0.937158 149 110 101 
0.030111 -0.150443 0.937452 142 106 94 
0.029640 -0.150978 0.937143 148 108 100 
0.029123 -0.150349 0.937402 146 109 98 
0.030549 -0.151074 0.937223 146 107 98 
0.030252 -0.150625 0.937383 143 106 95 
0.030505 -0.150550 0.937471 142 106 94 
-0.005059 -0.160226 1.003691 86 16 14 
-0.005565 -0.159896 1.004516 93 18 16 
-0.005430 -0.160075 1.004267 92 17 16 
-0.005534 -0.159450 1.004612 90 20 15 
-0.005746 -0.160198 1.004679 97 17 17 
-0.005469 -0.159489 1.004506 89 20 15 
-0.003980 -0.160158 1.002904 76 24 32 
-0.004843 -0.159789 1.003635 82 19 16 
-0.004722 -0.160267 1.003399 83 18 19 
-0.004482 -0.159916 1.003338 79 21 23 
-0.004328 -0.159442 1.003375 72 21 25 
-0.003383 -0.160244 1.002449 68 25 43 
-0.004337 -0.159196 1.003458 69 21 25 
-0.003336 -0.160432 1.002357 69 26 44 
-0.002801 -0.160216 1.000712 74 41 54 
-0.003163 -0.160124 1.001959 67 29 47 
-0.003083 -0.160545 1.001560 74 33 49 
-0.001712 -0.159809 0.997168 86 74 74 
-0.003168 -0.159484 1.002170 58 26 46 
-0.002736 -0.159918 1.000584 71 42 55 
-0.003089 -0.159686 1.001841 62 30 48 
-0.002268 -0.159744 0.999061 76 56 64 
-0.002636 -0.160147 1.000175 76 46 57 
-0.002208 -0.159605 0.998901 76 57 65 
-0.002343 -0.159975 0.999243 78 54 62 
-0.001758 -0.159677 0.997522 82 70 73 
-0.002175 -0.159382 0.999252 68 53 65 
-0.001691 -0.159637 0.997451 81 70 75 
-0.001802 -0.159363 0.998382 69 60 72 
-0.001782 -0.158800 0.999680 48 43 72 
-0.002294 -0.159440 0.999404 70 52 63 
-0.001682 -0.158751 0.999552 46 44 74 
-0.001738 -0.159462 0.997985 74 64 74 
-0.001113 -0.159165 0.995568 75 67 76 
-0.000275 -0.158865 0.991497 85 75 76 
-0.001065 -0.158716 0.996364 59 55 76 
-0.001085 -0.159192 0.995345 77 69 76 
-0.001408 -0.159648 0.996107 87 76 76 
-0.000938 -0.159009 0.994943 74 66 76 
-0.000472 -0.159026 0.992236 87 76 76 
-0.001100 -0.159351 0.995053 83 73 76 
-0.001590 -0.158605 0.999628 41 41 76 
-0.001462 -0.159549 0.996650 81 72 76 
-0.001448 -0.159571 0.996519 83 73 76 
-0.001133 -0.159064 0.995923 71 64 76 
-0.001360 -0.158631 0.998252 48 46 76 
-0.001108 -0.159284 0.995262 80 71 76 
-0.000975 -0.159084 0.994974 76 68 76 
0.000023 -0.157969 0.994370 47 45 76 
-0.000345 -0.158043 0.995969 42 41 76 
-0.000326 -0.158264 0.994599 54 51 76 
-0.000172 -0.157945 0.995579 41 41 76 
-0.000798 -0.158646 0.995018 63 58 76 
-0.000683 -0.158415 0.995702 54 51 76 
-0.000744 -0.158357 0.996370 49 47 76 
-0.000586 -0.158662 0.993759 69 63 76 
-0.000538 -0.158588 0.993921 67 61 76 
-0.000022 -0.158103 0.993845 53 50 76 
-0.000329 -0.158015 0.996042 41 41 76 
-0.000350 -0.158235 0.994904 52 49 76 
0.000080 -0.158097 0.993324 55 52 76 
0.007432 -0.151410 0.946823 153 127 98 
0.006534 -0.152108 0.948952 153 127 103 
0.007793 -0.151344 0.945391 156 128 95 
0.007481 -0.151365 0.946725 153 126 98 
0.006870 -0.151778 0.948344 152 126 101 
0.007017 -0.151392 0.948724 149 124 101 
0.006633 -0.151453 0.950274 147 122 103 
0.006724 -0.151534 0.949651 148 123 103 
0.006566 -0.151606 0.950163 148 123 104 
0.006632 -0.151934 0.948984 152 126 103 
0.006672 -0.151420 0.950191 147 121 103 
0.008001 -0.151119 0.944488 157 129 96 
0.007821 -0.150746 0.945508 153 126 100 
0.007729 -0.151220 0.945823 154 127 96 
0.007259 -0.151116 0.948213 149 123 100 
0.008020 -0.150782 0.944497 156 128 98 
0.007609 -0.150281 0.946711 149 123 105 
0.007737 -0.150234 0.946082 151 124 104 
0.007537 -0.150786 0.946920 151 124 101 
0.007101 -0.150632 0.949151 145 120 104 
0.007532 -0.151041 0.946865 151 125 99 
0.007893 -0.150016 0.945367 151 125 105 
0.008030 -0.149935 0.944705 152 126 105 
0.007620 -0.150875 0.946476 152 125 100 
0.007896 -0.150238 0.945284 152 125 103 
0.008260 -0.151264 0.943768 159 130 94 
0.008918 -0.150982 0.942616 160 129 96 
0.008646 -0.150747 0.943196 158 128 98 
0.008529 -0.150393 0.943522 156 127 101 
0.008587 -0.150723 0.943315 158 128 98 
0.009191 -0.150999 0.942099 161 129 96 
0.009230 -0.150521 0.942164 160 128 100 
0.009191 -0.149833 0.942414 159 127 105 
0.008856 -0.149635 0.943102 157 126 106 
0.009427 -0.149472 0.942055 159 126 107 
0.009619 -0.150888 0.941328 162 128 97 
0.009265 -0.150552 0.942089 160 128 99 
0.009721 -0.150883 0.941285 163 129 97 
0.010283 -0.150659 0.941182 163 129 100 
0.009839 -0.150001 0.941473 162 128 104 
0.010800 -0.149918 0.941227 163 128 106 
0.011034 -0.150222 0.941084 164 129 105 
0.010332 -0.149850 0.941373 162 128 106 
0.012176 -0.150345 0.940715 166 128 102 
0.011406 -0.149604 0.941138 163 127 108 
0.011727 -0.150099 0.940914 165 128 104 
0.012257 -0.149570 0.940903 164 126 105 
0.012006 -0.149811 0.940908 164 127 105 
0.012714 -0.149369 0.940827 164 126 103 
0.013579 -0.150021 0.940408 164 126 99 
0.013072 -0.149956 0.940566 165 126 101 
0.013768 -0.150218 0.940301 164 126 98 
0.014064 -0.149418 0.940509 163 125 98 
0.014081 -0.150264 0.940214 164 126 97 
0.014238 -0.150129 0.940227 164 126 97 
0.014888 -0.150474 0.939851 163 124 95 
0.015172 -0.149932 0.939910 162 123 95 
0.014456 -0.150627 0.939992 164 125 96 
0.015379 -0.149884 0.939848 162 123 95 
0.015333 -0.149439 0.940051 162 124 96 
0.014778 -0.149365 0.940296 162 125 97 
0.017184 -0.150437 0.938975 162 121 94 
0.016472 -0.150533 0.939178 162 121 94 
0.016690 -0.149765 0.939423 162 122 95 
0.017435 -0.149312 0.939515 162 123 96 
0.017091 -0.149502 0.939483 162 123 96 
0.016955 -0.149922 0.939278 162 122 95 
0.018397 -0.150186 0.938688 162 123 93 
0.018969 -0.150356 0.938380 162 123 92 
0.017875 -0.149436 0.939300 162 123 95 
0.018540 -0.149804 0.938868 163 124 94 
0.017824 -0.149061 0.939567 163 124 96 
0.018853 -0.149339 0.939130 163 127 95 
0.019595 -0.149836 0.938506 163 126 93 
0.019738 -0.149644 0.938583 163 126 93 
0.019167 -0.149877 0.938662 163 125 93 
0.019946 -0.149572 0.938566 163 126 93 
0.020515 -0.149666 0.938313 163 124 92 
0.020476 -0.149656 0.938334 163 124 92 
0.020608 -0.149749 0.938213 163 124 92 
0.021524 -0.149719 0.937922 162 124 91 
0.021280 -0.149875 0.937871 162 124 91 
0.021358 -0.149621 0.938067 162 124 92 
0.021419 -0.149317 0.938349 161 124 92 
0.022187 -0.150024 0.937447 160 124 90 
0.021950 -0.148978 0.938584 160 124 92 
0.021748 -0.149295 0.938300 161 124 92 
0.023465 -0.149954 0.937418 159 123 90 
0.022565 -0.149428 0.938025 160 124 91 
0.023644 -0.150234 0.937116 159 123 90 
0.022339 -0.149159 0.938318 160 124 91 
0.023435 -0.148902 0.938574 157 121 89 
0.023460 -0.149857 0.937522 159 123 90 
0.023781 -0.148982 0.938482 157 120 88 
0.023236 -0.149082 0.938378 158 122 89 
0.024219 -0.149328 0.938130 157 120 88 
0.024737 -0.149717 0.937747 157 120 88 
0.024516 -0.150098 0.937310 157 121 89 
0.024001 -0.149968 0.937409 158 122 89 
0.025320 -0.149347 0.938134 155 119 85 
0.025371 -0.150162 0.937307 156 120 88 
0.025453 -0.149285 0.938198 154 118 85 
0.025687 -0.150243 0.937230 156 119 89 
0.026349 -0.150026 0.937462 155 117 91 
0.025743 -0.149760 0.937721 155 118 88 
0.026713 -0.149881 0.937615 155 114 92 
0.026282 -0.149294 0.938202 153 113 88 
0.026283 -0.149078 0.938421 153 112 87 
0.026744 -0.149035 0.938472 152 107 88 
0.027142 -0.150016 0.937496 154 112 94 
0.027420 -0.149793 0.937752 152 110 94 
0.028063 -0.150209 0.937404 150 111 98 
0.027294 -0.149270 0.938266 151 106 91 
0.027750 -0.149056 0.938539 145 105 92 
0.028426 -0.149358 0.938314 142 107 96 
0.027973 -0.149375 0.938240 146 106 94 
0.028341 -0.150027 0.937620 148 109 98 
0.030067 -0.150225 0.937604 140 106 93 
0.029459 -0.149751 0.938025 139 106 94 
0.029854 -0.150286 0.937519 142 106 94 
0.029692 -0.149772 0.938038 138 104 92 
0.029480 -0.149313 0.938513 134 98 90 
0.029124 -0.149293 0.938464 137 104 93 
0.029260 -0.149062 0.938752 133 97 90 
0.030658 -0.149465 0.938589 130 88 84 
0.030237 -0.150230 0.937632 139 104 92 
0.030934 -0.150243 0.937773 139 104 92 
0.030393 -0.149430 0.938568 130 88 84 
0.031485 -0.149396 0.939030 129 86 83 
0.031391 -0.149397 0.938987 129 86 83 
0.031541 -0.149966 0.938267 136 97 89 
0.031544 -0.149652 0.938704 132 91 86 
-0.009843 -0.160025 1.009670 110 20 21 
-0.009724 -0.159206 1.009955 110 20 21 
-0.009432 -0.160075 1.009250 110 21 22 
-0.010145 -0.160013 1.009968 109 20 20 
-0.010032 -0.159701 1.010011 110 20 20 
-0.009196 -0.158492 1.009595 110 21 23 
-0.009457 -0.158516 1.009887 109 21 22 
-0.008753 -0.159577 1.008807 110 22 25 
-0.009060 -0.159194 1.009257 110 21 24 
-0.008564 -0.159333 1.008655 110 22 26 
-0.007118 -0.159484 1.006791 110 22 21 
-0.008416 -0.159040 1.008559 110 22 26 
-0.007046 -0.159542 1.006684 110 22 21 
-0.008231 -0.159490 1.008207 110 22 26 
-0.007517 -0.159393 1.007322 110 22 23 
-0.008256 -0.158674 1.008451 110 22 26 
-0.007653 -0.158681 1.007692 110 22 23 
-0.006757 -0.159046 1.006468 110 22 20 
-0.008343 -0.158384 1.008639 110 22 26 
-0.006844 -0.158294 1.006803 110 22 20 
-0.006815 -0.158769 1.006624 110 22 20 
-0.006554 -0.159521 1.006042 108 21 19 
-0.005825 -0.159330 1.005062 95 21 16 
-0.006611 -0.159520 1.006124 109 21 19 
-0.006372 -0.159145 1.005898 104 21 18 
-0.005218 -0.159136 1.004258 84 21 13 
-0.005868 -0.157905 1.005589 96 21 16 
-0.005668 -0.158507 1.005101 92 21 15 
-0.005021 -0.158227 1.004302 81 21 13 
-0.006340 -0.158263 1.006119 104 21 18 
-0.005235 -0.158988 1.004332 85 21 13 
-0.005217 -0.158855 1.004353 84 21 13 
-0.003458 -0.159019 1.002885 53 21 41 
-0.003792 -0.158671 1.003248 59 21 35 
-0.003630 -0.159076 1.002989 56 20 38 
-0.003780 -0.158697 1.003231 59 21 35 
-0.004180 -0.158849 1.003466 66 21 28 
-0.003411 -0.157881 1.003190 52 21 42 
-0.003311 -0.157940 1.003096 51 21 43 
-0.003677 -0.158449 1.003226 57 21 37 
-0.004044 -0.158216 1.003577 64 21 30 
-0.001867 -0.158629 1.000207 42 37 71 
-0.003168 -0.158057 1.002800 50 22 46 
-0.003107 -0.158613 1.002523 49 23 47 
-0.002536 -0.158802 1.001403 46 30 58 
-0.003105 -0.158285 1.002617 49 23 47 
-0.003258 -0.158450 1.002852 50 21 44 
-0.003264 -0.159002 1.002700 50 21 44 
-0.002973 -0.157597 1.002707 49 24 50 
-0.002440 -0.157421 1.002648 45 31 60 
-0.002755 -0.157752 1.002242 47 27 54 
-0.002828 -0.157587 1.002618 48 26 52 
-0.002243 -0.158129 1.001121 44 33 63 
-0.001734 -0.157879 1.001223 41 39 73 
-0.001493 -0.158106 1.000258 41 41 76 
-0.000694 -0.157951 0.997546 41 41 76 
-0.001138 -0.157728 0.999653 41 41 76 
-0.000617 -0.158088 0.996990 40 40 76 
-0.000558 -0.157971 0.996993 40 40 76 
-0.001381 -0.158008 1.000025 41 41 76 
-0.000611 -0.157865 0.997397 40 40 76 
-0.000783 -0.158107 0.997579 40 40 76 
-0.000670 -0.157652 0.998032 41 41 76 
-0.000825 -0.157857 0.998219 41 41 76 
-0.001361 -0.158409 0.999175 41 41 76 
-0.000534 -0.157481 0.998257 41 41 76 
-0.000338 -0.157108 0.999393 40 40 76 
0.000054 -0.156932 0.999048 41 41 76 
-0.000222 -0.157035 0.999388 41 41 76 
-0.000319 -0.157294 0.998481 41 41 76 
-0.000017 -0.157743 0.995524 41 41 75 
-0.001401 -0.157276 1.001751 41 41 76 
-0.000106 -0.157187 0.998346 41 41 76 
-0.000661 -0.157078 1.000480 41 41 76 
-0.000212 -0.157280 0.998230 41 41 76 
-0.000220 -0.156997 0.999560 41 41 76 
0.008558 -0.149047 0.945049 155 126 106 
0.008097 -0.149446 0.945331 153 126 106 
0.008595 -0.149595 0.943791 155 126 106 
0.008498 -0.149235 0.944796 155 126 106 
0.008355 -0.149123 0.945386 154 126 106 
0.008876 -0.149534 0.943234 157 126 107 
0.008893 -0.149549 0.943160 157 126 107 
0.009507 -0.148694 0.943367 150 124 107 
0.008658 -0.148859 0.945193 155 126 106 
0.009093 -0.148760 0.944286 152 125 107 
0.009303 -0.148391 0.944478 146 123 107 
0.009177 -0.148361 0.944856 146 123 107 
0.008905 -0.148665 0.944949 151 125 107 
0.009521 -0.148321 0.944062 144 122 107 
0.009718 -0.148835 0.942719 152 124 108 
0.010695 -0.149261 0.941569 161 126 109 
0.010107 -0.149024 0.942223 156 125 108 
0.009712 -0.149294 0.941842 159 126 108 
0.009852 -0.148806 0.942729 152 124 108 
0.011162 -0.147991 0.942856 144 118 108 
0.010193 -0.148134 0.943574 143 120 108 
0.011199 -0.148062 0.942740 146 118 108 
0.011067 -0.148381 0.942492 149 121 108 
0.010895 -0.148325 0.942714 148 120 108 
0.012646 -0.149253 0.940886 163 126 104 
0.011524 -0.148670 0.941917 154 122 107 
0.011701 -0.149272 0.941171 162 126 108 
0.011784 -0.148732 0.941761 155 122 107 
0.012600 -0.147853 0.941791 148 124 106 
0.011850 -0.147904 0.942359 146 121 107 
0.011947 -0.148465 0.941964 152 121 106 
0.012688 -0.148974 0.941085 160 125 104 
0.013499 -0.149135 0.940748 162 126 101 
0.013788 -0.148681 0.940939 157 125 101 
0.013666 -0.149112 0.940723 162 126 100 
0.013219 -0.148142 0.941368 151 125 103 
0.013602 -0.148074 0.941329 151 124 104 
0.014103 -0.148086 0.941220 151 123 103 
0.015161 -0.148944 0.940359 160 124 98 
0.014479 -0.148122 0.941107 151 122 103 
0.015667 -0.148996 0.940128 161 123 97 
0.014985 -0.148987 0.940404 161 124 98 
0.015931 -0.148110 0.940610 151 125 102 
0.015445 -0.147836 0.940952 148 124 104 
0.015252 -0.148207 0.940772 153 123 102 
0.016225 -0.148641 0.940193 157 124 99 
0.016082 -0.148026 0.940627 150 126 103 
0.016097 -0.148575 0.940264 157 125 99 
0.016967 -0.147984 0.940462 150 126 103 
0.017278 -0.147846 0.940485 149 126 103 
0.016913 -0.148285 0.940276 154 125 101 
0.018542 -0.148991 0.939449 162 127 96 
0.018240 -0.148257 0.939999 154 127 100 
0.017688 -0.148007 0.940289 151 126 102 
0.018281 -0.148954 0.939533 162 126 97 
0.018393 -0.147874 0.940215 149 125 103 
0.018814 -0.148594 0.939648 158 127 98 
0.018183 -0.147720 0.940364 148 125 104 
0.019995 -0.148793 0.939196 160 125 96 
0.019758 -0.148643 0.939363 158 125 97 
0.019413 -0.148501 0.939556 157 125 98 
0.020515 -0.148560 0.939201 158 123 96 
0.020241 -0.147923 0.939703 149 121 100 
0.020120 -0.148228 0.939533 153 122 99 
0.020752 -0.147648 0.939745 145 120 101 
0.021354 -0.148174 0.939269 151 122 97 
0.020749 -0.148446 0.939214 156 122 96 
0.021395 -0.147686 0.939645 144 117 99 
0.021983 -0.148254 0.939138 151 120 95 
0.022159 -0.147619 0.939640 141 112 97 
0.022008 -0.148532 0.938910 155 122 94 
0.022971 -0.148499 0.938907 152 118 92 
0.022777 -0.148643 0.938793 155 120 91 
0.022614 -0.148577 0.938847 154 120 92 
0.022597 -0.147519 0.939724 138 110 96 
0.023587 -0.148507 0.938904 151 117 89 
0.023836 -0.148103 0.939283 144 114 88 
0.023083 -0.148158 0.939184 147 114 93 
0.024583 -0.148774 0.938693 153 118 86 
0.024580 -0.148629 0.938822 151 117 86 
0.024138 -0.148784 0.938679 154 118 87 
0.025313 -0.148347 0.939114 144 107 82 
0.024587 -0.148038 0.939358 141 111 85 
0.025037 -0.147940 0.939488 137 102 82 
0.026420 -0.148828 0.938673 150 107 86 
0.025972 -0.148266 0.939213 141 99 82 
0.026207 -0.148326 0.939158 141 98 83 
0.025755 -0.148830 0.938661 152 113 84 
0.026831 -0.147761 0.939929 127 83 82 
0.026963 -0.148243 0.939380 137 91 85 
0.026581 -0.147996 0.939594 133 89 83 
0.027352 -0.147865 0.939893 126 84 84 
0.027152 -0.148153 0.939523 134 89 85 
0.027190 -0.148730 0.938835 146 100 88 
0.027736 -0.148879 0.938725 144 104 91 
0.027907 -0.148009 0.939820 124 83 86 
0.028102 -0.147642 0.940344 116 68 84 
0.028384 -0.148049 0.939873 121 78 88 
0.028468 -0.148332 0.939522 126 87 90 
0.029471 -0.148742 0.939194 126 84 85 
0.029370 -0.148615 0.939339 125 82 86 
0.028913 -0.147854 0.940243 114 64 85 
0.029402 -0.148406 0.939620 120 74 84 
0.029438 -0.148012 0.940198 113 57 80 
0.029208 -0.147971 0.940170 113 62 82 
0.029920 -0.148043 0.940344 110 46 73 
0.030072 -0.147744 0.940862 103 28 67 
0.030862 -0.148862 0.939507 122 72 78 
0.031037 -0.148466 0.940193 114 53 73 
0.030941 -0.148939 0.939426 123 75 79 
0.030434 -0.148800 0.939403 121 70 77 
0.030769 -0.148173 0.940516 109 40 69 
0.030771 -0.147921 0.940931 102 30 63 
0.031854 -0.147930 0.941571 89 31 46 
0.031707 -0.148415 0.940665 106 51 63 
0.031751 -0.148645 0.940305 113 61 69 
0.031815 -0.147977 0.941468 91 33 48 
0.032939 -0.148253 0.942286 94 38 50 
0.032826 -0.147958 0.942639 85 27 42 
0.031956 -0.148043 0.941469 92 36 48 
0.032161 -0.148110 0.941601 93 37 49 
0.032167 -0.148634 0.940743 109 59 65 
-0.010594 -0.157875 1.011338 110 20 20 
-0.010686 -0.157420 1.011562 111 21 20 
-0.010833 -0.157802 1.011619 110 20 19 
-0.011362 -0.157382 1.012310 111 21 19 
-0.011196 -0.157152 1.012192 111 21 19 
-0.009985 -0.158481 1.010498 110 20 20 
-0.009833 -0.158069 1.010438 110 21 21 
-0.009137 -0.157827 1.009709 110 22 24 
-0.010166 -0.157572 1.010953 111 21 20 
-0.010073 -0.157358 1.010905 111 21 21 
-0.008820 -0.157844 1.009340 110 22 25 
-0.008835 -0.157555 1.009435 110 23 24 
-0.009714 -0.157013 1.010586 111 22 21 
-0.008875 -0.157415 1.009517 110 23 23 
-0.009634 -0.156971 1.010506 111 22 21 
-0.008367 -0.156839 1.009080 110 23 22 
-0.007544 -0.158116 1.007726 110 22 23 
-0.008411 -0.157549 1.008947 110 23 24 
-0.007998 -0.157993 1.008319 110 22 24 
-0.007776 -0.157403 1.008201 110 23 21 
-0.007747 -0.157760 1.008070 110 22 22 
-0.006783 -0.157300 1.006994 111 23 21 
-0.007149 -0.157617 1.007369 111 22 20 
-0.007264 -0.156644 1.007758 111 24 22 
-0.007390 -0.157019 1.007820 111 23 21 
-0.007809 -0.157054 1.008333 111 23 21 
-0.005816 -0.157546 1.005616 95 21 16 
-0.005952 -0.157668 1.005772 97 21 17 
-0.006621 -0.157216 1.006801 109 23 21 
-0.006601 -0.156852 1.006865 109 23 22 
-0.006222 -0.157138 1.006275 102 23 19 
-0.005368 -0.156518 1.005221 85 24 22 
-0.005838 -0.156419 1.005901 94 24 23 
-0.006072 -0.156827 1.006147 100 23 20 
-0.005029 -0.156491 1.004750 78 24 22 
-0.005523 -0.156966 1.005347 89 23 18 
-0.005937 -0.156435 1.006037 96 24 23 
-0.004841 -0.156968 1.004497 76 23 21 
-0.004711 -0.157551 1.004280 75 21 18 
-0.004978 -0.157387 1.004516 79 21 15 
-0.004269 -0.156837 1.004091 66 23 32 
-0.003330 -0.156313 1.003292 44 27 51 
-0.003958 -0.156795 1.003847 60 23 37 
-0.003324 -0.155951 1.003298 41 29 53 
-0.003591 -0.156618 1.003520 51 25 44 
-0.003532 -0.157100 1.003452 53 22 42 
-0.003276 -0.155878 1.003266 40 30 54 
-0.002419 -0.156998 1.002734 43 33 63 
-0.002359 -0.156776 1.002706 41 35 65 
-0.003087 -0.156163 1.003148 41 31 56 
-0.001881 -0.156562 1.002333 37 37 75 
-0.001886 -0.155935 1.002227 33 35 78 
-0.002262 -0.156284 1.002577 37 35 70 
-0.002009 -0.156140 1.002358 35 35 75 
-0.000947 -0.156262 1.000972 35 38 80 
-0.001215 -0.155931 1.001360 32 36 82 
-0.001526 -0.156154 1.001916 33 37 81 
-0.000815 -0.156169 1.000736 34 37 80 
-0.000986 -0.156918 1.001150 39 40 77 
-0.001297 -0.156522 1.001599 36 38 79 
-0.000317 -0.155893 1.000633 32 36 82 
0.000033 -0.156299 0.999953 36 38 79 
0.000038 -0.156669 0.999570 39 40 77 
-0.000353 -0.155986 1.000564 33 37 81 
-0.000461 -0.155557 1.001085 29 35 84 
0.001209 -0.155927 0.996367 33 63 87 
0.000359 -0.156196 0.999065 35 44 81 
0.000293 -0.155976 0.999521 33 42 82 
0.000165 -0.156192 0.999747 35 40 80 
0.001020 -0.155887 0.997071 32 58 86 
0.001041 -0.156099 0.996781 34 60 85 
0.000246 -0.156455 0.999195 37 43 79 
0.001283 -0.156222 0.995807 35 66 86 
0.000147 -0.155700 1.000317 31 37 83 
0.000253 -0.156612 0.999009 39 43 78 
0.000810 -0.155252 0.999031 26 41 83 
0.001472 -0.155711 0.995975 30 63 87 
0.000640 -0.155310 0.999392 27 40 84 
0.001570 -0.154940 0.997534 20 44 81 
0.001647 -0.155482 0.996008 27 60 85 
0.001253 -0.155710 0.996625 30 60 87 
0.001287 -0.155374 0.997329 26 51 84 
0.000437 -0.155349 0.999899 27 39 84 
0.001451 -0.155187 0.997294 24 49 83 
0.001304 -0.155240 0.997603 24 48 83 
0.008408 -0.147919 0.950755 123 107 107 
0.008291 -0.148317 0.948473 140 118 106 
0.008563 -0.148145 0.948565 134 114 107 
0.009181 -0.148161 0.945961 138 119 107 
0.008155 -0.148455 0.948068 145 121 106 
0.008706 -0.148006 0.948953 129 111 107 
0.008427 -0.147939 0.950538 124 108 107 
0.008266 -0.148193 0.949432 134 114 107 
0.008132 -0.148199 0.949933 134 113 107 
0.008737 -0.148052 0.948509 131 113 107 
0.008983 -0.148096 0.947207 134 116 107 
0.008986 -0.147610 0.949807 131 113 108 
0.008668 -0.147815 0.950159 126 110 108 
0.009570 -0.147685 0.946848 140 120 108 
0.009169 -0.147501 0.949552 134 115 108 
0.009005 -0.147710 0.949212 131 114 108 
0.009319 -0.147514 0.948827 136 117 107 
0.009041 -0.147690 0.949157 132 114 108 
0.009350 -0.147417 0.949182 136 117 108 
0.009596 -0.147978 0.945238 140 121 108 
0.009330 -0.147581 0.948435 136 117 108 
0.009301 -0.147430 0.949338 136 117 108 
0.010705 -0.147822 0.944277 143 119 107 
0.010482 -0.147918 0.944105 143 119 108 
0.009911 -0.147883 0.945066 142 121 108 
0.010107 -0.147877 0.944827 142 120 107 
0.010161 -0.147482 0.946706 142 120 108 
0.010393 -0.147775 0.944936 143 120 108 
0.010151 -0.147715 0.945568 142 120 108 
0.009726 -0.147740 0.946029 142 121 107 
0.010349 -0.147757 0.945086 143 120 108 
0.010177 -0.147173 0.947907 142 120 108 
0.010406 -0.147236 0.947233 143 120 108 
0.011184 -0.147629 0.944250 144 118 108 
0.010300 -0.147419 0.946713 143 120 107 
0.010205 -0.147256 0.947526 142 120 108 
0.010586 -0.147606 0.945450 143 119 108 
0.010378 -0.147423 0.946553 143 120 108 
0.010795 -0.147091 0.947084 144 119 108 
0.011460 -0.147065 0.946073 145 118 107 
0.012236 -0.147746 0.942506 146 123 106 
0.011306 -0.147142 0.945954 145 118 107 
0.011407 -0.147795 0.943295 145 118 107 
0.011341 -0.147586 0.944186 145 118 107 
0.012155 -0.147594 0.943195 146 122 106 
0.011305 -0.147407 0.944925 145 118 107 
0.012135 -0.147049 0.944990 146 122 106 
0.011763 -0.147090 0.945491 145 120 107 
0.012685 -0.147519 0.942675 147 125 106 
0.011433 -0.147023 0.946243 145 118 107 
0.011545 -0.146993 0.946144 145 119 107 
0.012341 -0.146934 0.944982 147 123 106 
0.012796 -0.146861 0.944436 147 125 106 
0.013605 -0.147422 0.942506 148 123 105 
0.012886 -0.147761 0.941719 148 125 105 
0.012925 -0.147282 0.943097 148 125 105 
0.013188 -0.147401 0.942682 148 124 105 
0.013053 -0.147782 0.941613 148 125 105 
0.013119 -0.147703 0.941823 148 125 105 
0.013506 -0.146751 0.944215 147 123 105 
0.013492 -0.146896 0.943907 147 123 105 
0.014362 -0.146903 0.943236 148 121 105 
0.013983 -0.146883 0.943565 147 122 105 
0.013975 -0.147433 0.942362 148 122 105 
0.014515 -0.146949 0.943048 147 121 105 
0.014487 -0.147666 0.941492 147 121 104 
0.014519 -0.147198 0.942504 147 121 105 
0.015719 -0.147652 0.941026 147 125 105 
0.014841 -0.147151 0.942476 147 122 105 
0.015777 -0.147514 0.941302 147 126 104 
0.015864 -0.146430 0.943049 147 126 105 
0.014778 -0.146729 0.943391 147 122 104 
0.015873 -0.147183 0.941781 147 126 105 
0.015498 -0.147020 0.942345 147 125 105 
0.016317 -0.146695 0.942414 147 127 105 
0.016992 -0.147307 0.941231 147 126 104 
0.016742 -0.147458 0.941042 147 127 105 
0.016282 -0.147284 0.941445 146 126 104 
0.016443 -0.147554 0.940957 147 127 105 
0.017296 -0.147350 0.941069 147 127 105 
0.017213 -0.147080 0.941480 147 126 104 
0.017225 -0.146888 0.941738 147 127 105 
0.017147 -0.147089 0.941499 147 127 105 
0.018768 -0.147255 0.940767 146 122 105 
0.017875 -0.146959 0.941397 146 125 105 
0.018511 -0.147503 0.940492 146 123 105 
0.018188 -0.147303 0.940848 146 124 105 
0.017999 -0.146365 0.942136 146 125 105 
0.019157 -0.146714 0.941268 146 121 105 
0.018362 -0.146510 0.941821 146 124 105 
0.018444 -0.146437 0.941877 146 123 105 
0.020296 -0.147474 0.940013 144 120 102 
0.019476 -0.146999 0.940829 145 120 104 
0.019980 -0.147203 0.940433 144 120 103 
0.020479 -0.147374 0.940078 144 120 102 
0.019977 -0.146230 0.941553 145 120 103 
0.020584 -0.146185 0.941385 144 120 102 
0.020394 -0.146937 0.940607 144 120 102 
0.021358 -0.146897 0.940473 142 116 100 
0.021252 -0.147002 0.940365 142 116 100 
0.021143 -0.146793 0.940608 142 117 101 
0.021388 -0.146942 0.940421 141 115 100 
0.022102 -0.146991 0.940335 139 111 98 
0.021767 -0.146375 0.941081 140 113 99 
0.022161 -0.146158 0.941341 139 111 98 
0.021947 -0.146287 0.941186 140 112 99 
0.023166 -0.146969 0.940418 136 110 92 
0.022934 -0.147167 0.940163 137 110 94 
0.022513 -0.147472 0.939766 138 109 96 
0.022817 -0.146867 0.940516 137 110 95 
0.022911 -0.146235 0.941323 137 110 94 
0.023620 -0.147059 0.940359 134 110 89 
0.023068 -0.146620 0.940845 136 110 93 
0.023171 -0.146842 0.940571 136 110 92 
0.025053 -0.147334 0.940138 129 92 80 
0.024466 -0.147307 0.940125 131 101 84 
0.024171 -0.147485 0.939870 133 106 86 
0.024187 -0.147018 0.940480 133 106 86 
0.024795 -0.146777 0.940856 130 97 82 
0.025146 -0.146470 0.941346 129 91 80 
0.025395 -0.146705 0.941057 128 88 78 
0.025509 -0.146582 0.941249 128 86 78 
0.025099 -0.146259 0.941635 129 92 80 
0.025743 -0.146459 0.941472 127 85 78 
0.025544 -0.147097 0.940534 127 85 78 
0.026458 -0.147250 0.940522 124 81 80 
0.026320 -0.147455 0.940204 124 81 80 
0.027058 -0.147064 0.940963 122 78 81 
0.026366 -0.146728 0.941252 124 81 80 
0.026539 -0.146838 0.941141 124 80 80 
0.026189 -0.146310 0.941826 125 82 79 
0.027916 -0.147557 0.940420 116 68 84 
0.027215 -0.146642 0.941640 121 77 82 
0.027707 -0.147069 0.941109 117 71 83 
0.027586 -0.146842 0.941423 118 72 83 
0.028218 -0.146452 0.942297 114 66 84 
0.028594 -0.147122 0.941305 111 61 85 
0.028562 -0.146515 0.942325 112 62 85 
0.028277 -0.146582 0.942099 114 65 84 
0.028582 -0.147271 0.941048 111 61 85 
0.029439 -0.147430 0.941126 106 41 76 
0.029637 -0.147393 0.941269 105 37 73 
0.028752 -0.147094 0.941416 110 59 85 
0.029902 -0.147521 0.941161 103 30 69 
0.029116 -0.147543 0.940802 108 49 80 
0.029346 -0.146478 0.942721 107 45 78 
0.029764 -0.146936 0.942109 104 34 71 
0.030164 -0.147267 0.941712 102 24 66 
0.030364 -0.146616 0.942935 101 20 64 
0.030977 -0.146973 0.942689 94 22 55 
0.030760 -0.147323 0.941950 96 21 58 
0.031115 -0.147707 0.941502 93 23 53 
0.031223 -0.147514 0.941901 92 23 51 
0.030821 -0.147668 0.941390 95 22 57 
0.031164 -0.146562 0.943571 93 23 53 
0.031273 -0.146736 0.943328 92 23 51 
0.031608 -0.146673 0.943676 88 25 47 
0.031783 -0.147360 0.942542 86 26 44 
0.031850 -0.146891 0.943445 86 26 43 
0.032576 -0.147604 0.942972 85 27 42 
0.032665 -0.147309 0.943611 85 27 42 
0.032721 -0.147506 0.943323 85 27 42 
0.032488 -0.147272 0.943463 85 26 42 
0.032182 -0.146878 0.943801 85 26 42 
0.032648 -0.147770 0.942761 85 27 41 
0.033187 -0.147244 0.944339 85 27 42 
0.032798 -0.147158 0.944034 85 26 41 
0.033079 -0.146861 0.944886 85 27 42 
0.032627 -0.146819 0.944431 85 27 42 
0.032921 -0.147248 0.944020 85 27 42 
0.035121 -0.147079 0.946620 71 12 25 
0.033750 -0.147237 0.944988 83 25 40 
0.033951 -0.147545 0.944641 81 23 38 
0.033950 -0.147203 0.945245 82 23 38 
0.035096 -0.147100 0.946557 71 12 26 
0.033687 -0.147077 0.945209 84 26 41 
0.036768 -0.148280 0.946877 50 3 11 
0.036510 -0.147256 0.947643 54 5 13 
0.036726 -0.148187 0.946931 51 3 11 
0.036078 -0.147395 0.947169 59 7 17 
-0.012363 -0.156713 1.013628 112 22 18 
-0.012276 -0.156090 1.013739 113 22 20 
-0.012458 -0.155990 1.013975 113 22 19 
-0.012179 -0.156643 1.013447 112 21 19 
-0.011908 -0.157137 1.012981 111 21 19 
-0.010620 -0.156715 1.011702 112 22 21 
-0.011802 -0.157162 1.012855 111 21 19 
-0.010904 -0.156628 1.012045 112 22 21 
-0.011857 -0.156103 1.013269 113 22 21 
-0.010762 -0.156739 1.011851 112 22 20 
-0.010562 -0.156512 1.011714 112 22 21 
-0.011063 -0.156100 1.012404 113 22 21 
-0.010893 -0.156056 1.012239 113 22 22 
-0.010563 -0.155974 1.011919 112 23 22 
-0.011430 -0.155582 1.012992 113 23 22 
-0.009974 -0.156261 1.011163 112 23 22 
-0.009326 -0.156465 1.010329 111 23 22 
-0.008754 -0.156684 1.009578 111 23 21 
-0.009770 -0.156243 1.010932 112 23 22 
-0.010060 -0.156273 1.011259 112 22 22 
-0.008853 -0.156302 1.009832 111 24 22 
-0.008627 -0.155633 1.009730 111 24 24 
-0.008981 -0.155239 1.010279 111 24 25 
-0.008770 -0.155158 1.010037 111 24 25 
-0.009498 -0.155264 1.010920 112 24 24 
-0.007304 -0.156378 1.007877 111 24 23 
-0.007274 -0.156257 1.007873 111 24 23 
-0.008046 -0.155605 1.009011 111 24 24 
-0.008198 -0.155276 1.009289 111 24 25 
-0.008139 -0.155921 1.009042 111 24 24 
-0.008002 -0.155157 1.009052 110 25 26 
-0.007530 -0.155140 1.008425 110 25 28 
-0.007306 -0.154953 1.008154 110 26 30 
-0.007067 -0.155943 1.007681 111 25 25 
-0.007490 -0.155361 1.008337 111 25 27 
-0.006872 -0.154944 1.007577 110 26 32 
-0.006278 -0.155226 1.006713 101 26 30 
-0.005752 -0.156144 1.005836 92 25 25 
-0.006671 -0.154794 1.007328 109 26 33 
-0.006235 -0.155220 1.006654 100 26 30 
-0.006529 -0.155329 1.007047 106 26 30 
-0.006633 -0.155008 1.007242 108 26 32 
-0.005886 -0.155016 1.006195 93 26 33 
-0.005554 -0.155287 1.005688 86 26 31 
-0.006411 -0.154657 1.006983 103 27 35 
-0.005118 -0.155878 1.004992 78 26 26 
-0.006491 -0.154840 1.007070 105 26 33 
-0.005721 -0.154636 1.006015 88 27 37 
-0.004267 -0.155528 1.004205 59 28 42 
-0.004205 -0.155415 1.004164 58 28 44 
-0.003853 -0.155754 1.003792 51 29 46 
-0.004761 -0.155346 1.004685 70 27 36 
-0.004231 -0.154938 1.004247 57 29 48 
-0.003341 -0.154794 1.003322 37 34 60 
-0.003414 -0.154683 1.003398 38 34 60 
-0.004470 -0.154553 1.004495 61 29 48 
-0.003693 -0.154320 1.003688 43 34 58 
-0.002424 -0.154848 1.002589 31 35 75 
-0.003089 -0.155210 1.003115 36 33 61 
-0.002705 -0.154994 1.002812 33 34 69 
-0.002430 -0.155438 1.002596 33 33 71 
-0.002647 -0.155254 1.002766 34 34 69 
-0.002012 -0.154236 1.002188 31 41 81 
-0.002239 -0.154213 1.002381 31 40 78 
-0.001850 -0.154027 1.002033 31 42 83 
-0.002213 -0.153937 1.002337 32 42 79 
-0.000040 -0.155294 1.000926 29 35 85 
-0.001326 -0.154177 1.001657 30 42 86 
-0.001520 -0.154351 1.001795 30 41 86 
-0.000683 -0.154907 1.001305 29 38 85 
-0.000441 -0.153950 1.000558 30 43 86 
-0.000240 -0.154311 1.000556 30 41 86 
-0.001107 -0.154090 1.001402 30 43 86 
-0.000566 -0.154672 1.001150 29 39 85 
-0.000421 -0.154247 1.000722 30 41 86 
-0.000206 -0.153731 1.000156 30 44 86 
0.000443 -0.154267 0.999464 27 42 85 
0.001116 -0.154473 0.998285 23 43 82 
0.000133 -0.155295 1.000708 28 35 84 
0.000349 -0.155290 1.000283 27 36 84 
0.000605 -0.155053 0.999638 26 38 83 
0.000177 -0.153920 0.999765 29 43 86 
0.000204 -0.153894 0.999698 29 43 86 
0.000504 -0.154079 0.999229 27 43 85 
0.000443 -0.153599 0.999130 29 44 85 
0.000762 -0.153748 0.998645 28 43 84 
0.001421 -0.154356 0.997701 22 43 81 
0.001214 -0.154352 0.998033 23 44 82 
0.000214 -0.153561 0.999491 30 44 86 
0.001271 -0.154223 0.997916 23 43 81 
0.001543 -0.154125 0.997459 24 42 80 
0.002845 -0.152640 0.990703 38 50 73 
0.003153 -0.152873 0.988720 46 61 72 
0.003245 -0.152395 0.988449 40 53 70 
0.002464 -0.152819 0.992883 36 47 75 
0.002547 -0.152598 0.992519 34 44 74 
0.003401 -0.152714 0.987325 47 63 70 
0.002115 -0.152965 0.994889 33 43 77 
0.003020 -0.152379 0.989809 37 48 71 
0.002784 -0.153060 0.990822 44 58 74 
0.002576 -0.152886 0.992173 39 50 74 
0.001989 -0.152936 0.995667 31 40 77 
0.003263 -0.153092 0.987930 51 68 72 
0.002188 -0.152771 0.994567 31 40 76 
0.003005 -0.152270 0.989959 35 46 71 
0.003082 -0.152287 0.989489 36 47 71 
0.003184 -0.153069 0.988415 50 66 72 
0.002761 -0.153049 0.990968 44 57 74 
0.002728 -0.153098 0.991138 44 57 74 
0.008542 -0.147584 0.952260 117 102 104 
0.008618 -0.147484 0.952668 114 98 101 
0.008544 -0.147598 0.952133 118 103 104 
0.008320 -0.147580 0.953549 108 94 101 
0.008879 -0.147372 0.952129 117 101 101 
0.009148 -0.147240 0.951711 119 102 100 
0.009103 -0.147363 0.950939 125 108 103 
0.008348 -0.147761 0.951871 121 106 107 
0.008538 -0.147337 0.954355 101 87 95 
0.009384 -0.147342 0.949516 135 116 106 
0.008586 -0.147436 0.953248 109 94 99 
0.008621 -0.147451 0.952929 111 96 100 
0.008772 -0.147598 0.950840 127 110 107 
0.009327 -0.146861 0.953080 112 89 91 
0.009447 -0.146773 0.952924 114 89 90 
0.008684 -0.147164 0.954967 95 82 91 
0.009679 -0.146907 0.950740 129 104 97 
0.009430 -0.146896 0.952258 118 95 94 
0.009418 -0.147108 0.951028 124 105 99 
0.009473 -0.146856 0.952256 118 94 93 
0.008952 -0.146905 0.955001 98 78 87 
0.009039 -0.146846 0.954857 99 78 87 
0.008682 -0.147010 0.955930 90 74 87 
0.009187 -0.146678 0.955030 100 75 84 
0.008993 -0.146864 0.955016 98 78 87 
0.009003 -0.146974 0.954276 102 84 90 
0.009788 -0.147106 0.949153 137 115 104 
0.010480 -0.147013 0.948172 140 115 105 
0.010289 -0.146638 0.950832 126 96 93 
0.010896 -0.146984 0.947425 142 116 106 
0.010590 -0.146753 0.949476 132 103 98 
0.009767 -0.146665 0.951827 123 94 91 
0.009788 -0.146442 0.953108 116 84 85 
0.009912 -0.147080 0.949037 138 115 104 
0.010204 -0.146768 0.950248 130 101 96 
0.010439 -0.146670 0.950304 128 98 95 
0.011317 -0.146329 0.949595 128 100 90 
0.010714 -0.146279 0.951439 121 91 86 
0.010776 -0.146373 0.950832 124 94 89 
0.010908 -0.146744 0.948723 135 106 99 
0.010926 -0.146679 0.948983 133 105 98 
0.010885 -0.146303 0.950870 123 94 87 
0.010711 -0.146570 0.950071 128 99 93 
0.010134 -0.146497 0.951956 121 89 88 
0.010871 -0.146443 0.950245 127 98 91 
0.012197 -0.146676 0.946214 143 119 103 
0.011733 -0.146795 0.946579 143 117 104 
0.011598 -0.146551 0.947990 136 109 97 
0.011328 -0.146842 0.947165 141 114 104 
0.011889 -0.146313 0.948533 131 106 92 
0.012071 -0.146390 0.947806 135 110 95 
0.012425 -0.146674 0.945771 144 121 104 
0.011685 -0.146637 0.947414 139 112 100 
0.011565 -0.146557 0.948029 136 109 97 
0.011450 -0.146060 0.950577 122 94 84 
0.011920 -0.146145 0.949143 128 101 88 
0.012249 -0.146202 0.948149 132 106 91 
0.012271 -0.146385 0.947394 136 111 96 
0.012709 -0.146292 0.946722 138 113 96 
0.012758 -0.146102 0.947342 134 108 92 
0.012669 -0.145774 0.948816 126 98 84 
0.012290 -0.146371 0.947404 136 111 95 
0.012606 -0.146405 0.946527 139 115 98 
0.013276 -0.146097 0.946705 135 109 93 
0.013294 -0.146400 0.945544 142 117 100 
0.014045 -0.146574 0.944215 147 121 105 
0.012925 -0.146339 0.946101 140 116 98 
0.013013 -0.145986 0.947361 133 106 90 
0.012934 -0.146212 0.946576 137 112 95 
0.013489 -0.146046 0.946711 135 107 92 
0.013008 -0.146382 0.945865 141 117 99 
0.013364 -0.145749 0.947782 128 101 86 
0.013678 -0.146055 0.946457 135 108 92 
0.014394 -0.146361 0.944565 143 117 101 
0.014187 -0.145652 0.946902 128 102 87 
0.013882 -0.145664 0.947296 128 101 86 
0.014421 -0.146021 0.945509 136 110 94 
0.014176 -0.145592 0.947092 127 101 85 
0.015171 -0.146250 0.944162 142 119 100 
0.015005 -0.146455 0.943723 146 122 104 
0.015547 -0.146402 0.943392 146 124 104 
0.014615 -0.145742 0.946112 131 106 90 
0.014875 -0.146120 0.944797 139 115 97 
0.014530 -0.145795 0.946033 132 107 90 
0.015971 -0.146167 0.943599 142 120 99 
0.015629 -0.146094 0.944177 140 118 98 
0.015699 -0.145784 0.944847 134 109 91 
0.015573 -0.145688 0.945226 132 106 89 
0.015419 -0.145719 0.945329 132 107 90 
0.015724 -0.145986 0.944329 138 115 95 
0.015531 -0.145977 0.944574 137 115 95 
0.017109 -0.146292 0.942653 146 125 104 
0.017134 -0.146036 0.943254 141 118 98 
0.016546 -0.145772 0.944203 135 109 91 
0.017300 -0.146126 0.942950 143 121 100 
0.016443 -0.145910 0.943926 138 113 94 
0.016067 -0.145357 0.945456 127 96 81 
0.017331 -0.146056 0.943082 141 119 98 
0.017037 -0.145597 0.944244 132 107 87 
0.017065 -0.145210 0.945006 124 97 77 
0.017577 -0.146019 0.942961 141 120 97 
0.017031 -0.145814 0.943811 136 112 93 
0.017533 -0.145378 0.944292 128 104 81 
0.018568 -0.145887 0.942787 138 114 95 
0.018705 -0.145877 0.942750 138 114 95 
0.018970 -0.146102 0.942183 143 118 101 
0.018696 -0.146014 0.942477 141 117 99 
0.018300 -0.146234 0.942203 145 123 104 
0.018930 -0.145325 0.943539 128 104 82 
0.018388 -0.145572 0.943480 132 108 87 
0.018230 -0.145194 0.944224 125 100 77 
0.018880 -0.145772 0.942815 136 112 93 
0.019716 -0.145919 0.942154 140 115 97 
0.019931 -0.146106 0.941755 143 119 101 
0.019376 -0.146101 0.941979 143 118 101 
0.019815 -0.145897 0.942153 139 115 96 
0.019926 -0.145016 0.943502 122 95 76 
0.019821 -0.145310 0.943119 128 103 82 
0.020654 -0.145543 0.942324 132 105 88 
0.020212 -0.145513 0.942606 132 106 87 
0.021530 -0.145962 0.941630 137 110 96 
0.022283 -0.146100 0.941423 138 109 97 
0.021148 -0.145775 0.941907 135 108 93 
0.021257 -0.145338 0.942551 126 96 83 
0.021168 -0.145362 0.942517 127 97 84 
0.022379 -0.144891 0.943106 111 78 74 
0.021831 -0.145013 0.942975 116 84 76 
0.021715 -0.145124 0.942828 119 88 78 
0.022069 -0.145743 0.941938 131 101 90 
0.023291 -0.145676 0.942152 125 97 82 
0.022651 -0.145530 0.942255 124 94 84 
0.023093 -0.145849 0.941881 129 102 87 
0.022590 -0.145020 0.942954 113 81 75 
0.022606 -0.144989 0.942999 112 80 74 
0.023576 -0.145461 0.942468 118 88 76 
0.023147 -0.145296 0.942644 117 86 76 
0.023748 -0.145788 0.942052 125 98 81 
0.024879 -0.145830 0.942169 121 83 74 
0.024293 -0.145117 0.943010 107 66 64 
0.024738 -0.145840 0.942132 122 85 75 
0.024945 -0.146032 0.941913 126 89 78 
0.025483 -0.145237 0.942995 103 42 58 
0.024866 -0.145201 0.942969 105 56 62 
0.025257 -0.145911 0.942122 121 79 73 
0.025371 -0.144992 0.943290 97 34 54 
0.025663 -0.145673 0.942484 113 59 66 
0.025893 -0.146045 0.942088 122 75 75 
0.025695 -0.145685 0.942479 113 60 67 
0.026905 -0.146091 0.942336 118 71 77 
0.026254 -0.145119 0.943388 95 34 55 
0.026542 -0.145604 0.942847 107 52 66 
0.026962 -0.144968 0.943865 86 31 51 
0.026266 -0.145054 0.943480 93 31 53 
0.027656 -0.145639 0.943224 99 49 67 
0.027590 -0.145850 0.942916 106 57 72 
0.027603 -0.145721 0.943095 102 53 69 
0.028211 -0.146316 0.942521 114 65 84 
0.027625 -0.145525 0.943367 96 46 64 
0.027986 -0.145495 0.943560 93 40 64 
0.028076 -0.145647 0.943381 97 44 68 
0.028613 -0.146154 0.942897 106 55 81 
0.028544 -0.145171 0.944293 83 21 56 
0.028217 -0.145821 0.943194 100 48 72 
0.029195 -0.145701 0.943813 92 25 64 
0.028943 -0.145360 0.944202 86 20 59 
0.028848 -0.145378 0.944134 87 23 61 
0.028895 -0.146185 0.942979 106 50 80 
0.030315 -0.145486 0.944675 82 7 50 
0.029783 -0.145759 0.943993 90 15 57 
0.030426 -0.145343 0.944950 79 4 47 
0.029314 -0.145177 0.944650 80 10 52 
0.030441 -0.146305 0.943495 97 18 61 
0.030811 -0.146184 0.943927 91 17 53 
0.031329 -0.146343 0.944031 88 21 48 
0.031746 -0.146424 0.944187 85 24 43 
0.030715 -0.145638 0.944692 82 9 47 
0.031952 -0.146293 0.944551 82 22 40 
0.031582 -0.145730 0.945184 78 12 39 
0.031779 -0.145882 0.945088 79 15 39 
0.031618 -0.146165 0.944503 82 19 42 
0.031405 -0.145677 0.945134 78 11 40 
0.033310 -0.146597 0.945597 83 24 40 
0.032276 -0.145859 0.945598 78 14 37 
0.032995 -0.146414 0.945529 82 22 40 
0.032073 -0.146132 0.944925 81 19 39 
0.033442 -0.146627 0.945701 83 24 41 
0.033060 -0.145946 0.946322 78 14 37 
0.033018 -0.146131 0.946004 79 17 38 
0.032978 -0.145438 0.946993 74 6 34 
0.033385 -0.145498 0.947323 74 6 34 
0.032737 -0.145530 0.946608 75 8 34 
0.034228 -0.146633 0.946459 77 17 34 
0.033779 -0.146787 0.945802 83 25 40 
0.033756 -0.146282 0.946534 79 17 37 
0.033821 -0.146599 0.946123 81 21 38 
0.034463 -0.146287 0.947200 72 9 29 
0.034589 -0.145888 0.947733 72 6 29 
0.034955 -0.146241 0.947557 71 7 26 
0.034761 -0.146245 0.947443 71 8 27 
0.035089 -0.145836 0.948071 72 6 26 
0.035356 -0.145812 0.948250 72 5 25 
0.036474 -0.146980 0.947896 55 4 14 
0.035734 -0.146442 0.947878 66 6 21 
0.035622 -0.146015 0.948246 68 5 23 
0.036761 -0.147139 0.947957 51 3 11 
0.036217 -0.146156 0.948464 62 5 19 
0.036453 -0.146673 0.948197 56 3 15 
0.036018 -0.145993 0.948490 64 5 21 
0.035945 -0.146176 0.948321 64 4 20 
0.037478 -0.145929 0.945433 46 10 29 
0.037103 -0.145997 0.948049 53 9 20 
0.037460 -0.145913 0.945575 46 10 29 
0.036983 -0.146341 0.948579 53 7 16 
0.037470 -0.146165 0.945261 44 9 27 
0.036960 -0.146934 0.948181 50 4 11 
0.036976 -0.146954 0.948047 49 4 12 
0.037004 -0.146912 0.947886 49 4 13 
0.037722 -0.145869 0.943742 41 11 34 
0.037459 -0.146138 0.945368 45 9 27 
0.037345 -0.146759 0.945596 43 6 21 
0.038050 -0.146017 0.941255 33 11 40 
0.036989 -0.145909 0.948952 56 9 19 
0.036995 -0.146259 0.948572 54 7 16 
0.037302 -0.146612 0.946044 45 6 21 
0.037947 -0.145776 0.942990 38 11 38 
0.037450 -0.145736 0.946324 49 10 28 
0.037928 -0.145364 0.945967 47 10 35 
0.038013 -0.145644 0.943494 40 10 38 
0.038262 -0.145406 0.943617 40 10 42 
0.037551 -0.145711 0.945878 47 10 30 
0.037766 -0.145844 0.943626 40 11 35 
0.037430 -0.145675 0.946873 50 10 28 
0.037845 -0.145550 0.945185 45 10 35 
0.038158 -0.145534 0.943365 39 10 41 
0.038219 -0.145680 0.941976 35 11 43 
0.038015 -0.145522 0.944334 42 10 38 
0.039002 -0.144790 0.939479 31 12 55 
0.038582 -0.145027 0.943150 40 10 46 
0.038547 -0.145286 0.941393 35 11 47 
0.038628 -0.145048 0.942343 38 11 47 
0.038363 -0.145499 0.942065 36 11 44 
0.038361 -0.145348 0.943393 39 10 43 
0.038839 -0.145065 0.939320 30 12 53 
0.038615 -0.145228 0.940973 34 11 49 
0.038371 -0.145304 0.943636 40 10 43 
0.038331 -0.145718 0.940607 31 11 45 
0.039555 -0.144106 0.937838 29 12 63 
0.038750 -0.145004 0.941057 34 11 50 
0.038942 -0.144860 0.939685 32 12 54 
0.038700 -0.144940 0.942298 38 11 48 
0.038916 -0.144728 0.941180 36 11 52 
0.038505 -0.145454 0.940522 32 11 48 
-0.015451 -0.154741 1.016602 116 26 19 
-0.015768 -0.155657 1.016771 115 23 16 
-0.016659 -0.154588 1.017776 116 24 17 
-0.015397 -0.154393 1.016601 116 26 19 
-0.014012 -0.155730 1.015567 115 24 17 
-0.014083 -0.155794 1.015601 115 24 17 
-0.015164 -0.155785 1.016251 115 24 17 
-0.014529 -0.155519 1.015909 115 24 17 
-0.014718 -0.154671 1.016145 116 26 19 
-0.014837 -0.154809 1.016198 116 26 19 
-0.014084 -0.154971 1.015718 116 25 18 
-0.014402 -0.154566 1.015968 116 26 19 
-0.013311 -0.155026 1.015084 115 25 19 
-0.012490 -0.155387 1.014146 114 23 20 
-0.012357 -0.155544 1.013980 114 23 20 
-0.013480 -0.154887 1.015285 116 25 19 
-0.012847 -0.155446 1.014524 114 24 19 
-0.012280 -0.155291 1.013936 114 23 21 
-0.012563 -0.155073 1.014272 115 24 21 
-0.013032 -0.154577 1.014858 116 25 20 
-0.012689 -0.154636 1.014499 115 25 21 
-0.011075 -0.154761 1.012817 113 25 24 
-0.011839 -0.155456 1.013451 114 23 22 
-0.011542 -0.155132 1.013217 114 24 23 
-0.011904 -0.155537 1.013501 114 23 22 
-0.010809 -0.154929 1.012501 113 24 24 
-0.010354 -0.155053 1.012011 113 24 24 
-0.010895 -0.154466 1.012722 113 25 25 
-0.010694 -0.154262 1.012589 113 26 26 
-0.011470 -0.153952 1.013444 114 26 25 
-0.010747 -0.154127 1.012683 113 26 26 
-0.009060 -0.155042 1.010435 111 24 25 
-0.009905 -0.154486 1.011672 112 25 26 
-0.009887 -0.155152 1.011442 112 24 24 
-0.010032 -0.154805 1.011733 112 25 25 
-0.009341 -0.154579 1.010932 111 25 26 
-0.008742 -0.154408 1.010230 110 25 28 
-0.008545 -0.154855 1.009844 110 25 26 
-0.009432 -0.153611 1.011346 110 26 31 
-0.008523 -0.153659 1.010185 109 26 32 
-0.009026 -0.154491 1.010563 111 25 27 
-0.008959 -0.153805 1.010689 110 26 31 
